ply
format ascii 1.0
element vertex 1757
property float x
property float y
property float z
end_header
-0.012716 0.009966 0.038878
-0.013759 0.010131 0.038833
-0.014756 0.010364 0.038870
-0.003782 0.010203 0.039047
-0.002788 0.009971 0.039010
-0.004779 0.010436 0.039084
0.004885 0.010050 0.038723
0.012699 0.010037 0.034276
0.007894 0.010080 0.037363
0.011745 0.010337 0.034395
0.003975 0.010419 0.038923
-0.015801 0.010533 0.038826
-0.005824 0.010603 0.039040
0.002979 0.010651 0.038961
0.008956 0.010639 0.036158
0.010789 0.010637 0.034514
0.018365 0.010672 0.035524
-0.016799 0.010764 0.038863
0.007163 0.010707 0.037889
0.019356 0.010676 0.037097
0.020229 0.010699 0.038546
0.021215 0.010701 0.040117
0.026028 0.010685 0.045062
0.021883 0.010720 0.041590
0.023126 0.010726 0.043161
-0.018882 0.011103 0.038775
-0.019924 0.011269 0.038730
-0.017885 0.010869 0.038738
-0.009948 0.011342 0.038945
-0.008908 0.011172 0.038989
-0.006822 0.010840 0.039078
-0.007906 0.010941 0.038953
0.002025 0.010950 0.039079
0.010013 0.011200 0.034958
0.001071 0.011250 0.039198
0.006299 0.011141 0.038170
0.008222 0.011267 0.036687
0.039230 0.010086 0.092699
0.039982 0.010396 0.091099
0.037651 0.010301 0.094783
0.035467 0.010672 0.057322
0.027747 0.010718 0.046568
0.030267 0.010725 0.049689
0.038397 0.010615 0.093198
0.036602 0.010708 0.098913
0.024446 0.010308 0.115337
0.022728 0.010186 0.117081
0.026062 0.010150 0.113339
0.028839 0.010211 0.111536
0.030535 0.010267 0.109730
0.029689 0.010700 0.110128
0.027921 0.010508 0.111816
0.025229 0.010637 0.113790
0.021814 0.010500 0.117368
0.035455 0.009974 0.103863
0.035369 0.010715 0.102677
0.036136 0.010070 0.102075
0.036773 0.010136 0.100261
0.033858 0.010146 0.105892
0.032157 0.010124 0.107734
0.031287 0.010528 0.108108
0.033014 0.010621 0.106332
0.034655 0.010541 0.104390
0.039723 0.010751 0.080129
0.039131 0.010768 0.078659
0.038644 0.010776 0.077202
0.040756 0.010769 0.084403
0.040773 0.010779 0.085802
0.040240 0.010764 0.081567
0.040517 0.010776 0.082983
0.039033 0.010782 0.074419
0.039426 0.010793 0.071643
0.038686 0.010808 0.075797
0.039220 0.010830 0.073038
0.029056 0.010734 0.048089
0.032939 0.010744 0.054177
0.034077 0.010749 0.055693
0.032079 0.010754 0.052669
0.037605 0.010750 0.061653
0.038750 0.010761 0.065972
0.036121 0.010768 0.058688
0.036886 0.010773 0.060166
0.031234 0.010774 0.051167
0.037815 0.010807 0.063050
0.039557 0.010793 0.070248
0.038165 0.010788 0.064498
0.039437 0.010796 0.068830
0.039188 0.010797 0.067398
0.023602 0.010741 0.115739
0.026973 0.010756 0.112042
0.030436 0.010954 0.108504
0.033837 0.011039 0.104851
0.032150 0.011071 0.106752
0.022719 0.011089 0.116065
0.026055 0.011057 0.112325
0.028814 0.011093 0.110493
0.024413 0.011143 0.114257
0.027902 0.011406 0.110786
0.036657 0.010814 0.096840
0.036903 0.010882 0.095411
0.036011 0.010781 0.100867
0.036635 0.010795 0.098256
0.034580 0.011336 0.103262
0.035858 0.011366 0.099524
0.039166 0.010945 0.091619
0.037591 0.011166 0.093720
0.040645 0.010772 0.087188
0.040423 0.010789 0.088587
0.040086 0.010821 0.089990
-0.023322 0.013783 0.038697
-0.023005 0.011839 0.038678
-0.022325 0.013550 0.038660
-0.022008 0.011605 0.038641
-0.020966 0.011437 0.038686
-0.021280 0.013383 0.038704
-0.020282 0.013150 0.038667
-0.019240 0.012979 0.038712
-0.017159 0.012642 0.038799
-0.018153 0.012878 0.038836
-0.016113 0.012478 0.038843
-0.016473 0.014355 0.038778
-0.015433 0.014187 0.038822
-0.015116 0.012246 0.038807
-0.014030 0.012143 0.038932
-0.014391 0.014020 0.038866
-0.012986 0.011976 0.038976
-0.013344 0.013854 0.038910
-0.012303 0.013687 0.038953
-0.023638 0.015723 0.038715
-0.022637 0.015494 0.038678
-0.023134 0.017171 0.038369
-0.022044 0.017072 0.038493
-0.021597 0.015323 0.038721
-0.021045 0.016837 0.038456
-0.020601 0.015091 0.038684
-0.018512 0.014757 0.038772
-0.019555 0.014927 0.038728
-0.020004 0.016671 0.038500
-0.018963 0.016506 0.038543
-0.017920 0.016339 0.038587
-0.017472 0.014592 0.038815
-0.016923 0.016104 0.038549
-0.016681 0.017158 0.037715
-0.015639 0.016989 0.037760
-0.015879 0.015937 0.038593
-0.014597 0.016823 0.037802
-0.014838 0.015768 0.038637
-0.013556 0.016660 0.037843
-0.013794 0.015602 0.038680
-0.012794 0.015371 0.038643
-0.011988 0.011739 0.038939
-0.010944 0.011573 0.038982
-0.011305 0.013454 0.038916
-0.011754 0.015202 0.038686
-0.010756 0.014970 0.038649
-0.011471 0.016323 0.037932
-0.012511 0.016491 0.037888
-0.009459 0.016583 0.036614
-0.010471 0.016089 0.037895
-0.009430 0.015924 0.037937
-0.008415 0.016416 0.036657
-0.007369 0.016251 0.036698
-0.012538 0.017148 0.036567
-0.011499 0.016984 0.036606
-0.009394 0.017373 0.035450
-0.010453 0.016815 0.036652
-0.008351 0.017206 0.035493
-0.007356 0.016973 0.035457
-0.009220 0.013122 0.039004
-0.008135 0.013017 0.039129
-0.010261 0.013286 0.038960
-0.007181 0.012719 0.039010
-0.006092 0.012617 0.039135
-0.005097 0.012386 0.039098
-0.005544 0.014137 0.038866
-0.009714 0.014801 0.038693
-0.008433 0.015692 0.037899
-0.006327 0.016083 0.036742
-0.008672 0.014634 0.038736
-0.007387 0.015525 0.037943
-0.007630 0.014468 0.038780
-0.006345 0.015357 0.037987
-0.006587 0.014304 0.038823
-0.004307 0.014960 0.037991
-0.005347 0.015128 0.037946
-0.005328 0.015850 0.036705
-0.006311 0.016807 0.035499
-0.004289 0.015685 0.036746
-0.003247 0.015519 0.036789
-0.005269 0.016642 0.035540
-0.004226 0.016476 0.035581
-0.004054 0.012220 0.039142
-0.003012 0.012050 0.039186
-0.004499 0.013969 0.038910
-0.003502 0.013737 0.038872
-0.002220 0.014625 0.038078
-0.003308 0.014727 0.037954
-0.001966 0.011881 0.039230
-0.001416 0.013400 0.038960
-0.002415 0.013634 0.038998
-0.003229 0.016242 0.035547
-0.002159 0.015417 0.036916
-0.001177 0.014458 0.038122
-0.000924 0.011716 0.039273
-0.002186 0.016076 0.035590
-0.003077 0.017165 0.034544
-0.001117 0.015251 0.036959
0.000028 0.011415 0.039155
-0.000419 0.013169 0.038922
-0.002037 0.016999 0.034588
-0.000994 0.016831 0.034632
-0.001143 0.015910 0.035631
-0.000145 0.015678 0.035594
-0.000136 0.014291 0.038165
0.000577 0.012936 0.038884
-0.000028 0.015151 0.037082
0.000863 0.014059 0.038126
0.001578 0.012700 0.038846
0.001863 0.013826 0.038087
0.002529 0.012403 0.038728
0.002815 0.013528 0.037969
0.000971 0.014919 0.037042
0.000004 0.016600 0.034593
0.000941 0.015578 0.035718
0.001967 0.014685 0.037005
0.003528 0.012170 0.038690
0.004480 0.011868 0.038572
0.002877 0.014320 0.036805
0.003813 0.013294 0.037931
0.001048 0.016433 0.034636
0.001939 0.015345 0.035680
0.002938 0.015112 0.035640
0.002045 0.016203 0.034596
0.005388 0.011506 0.038371
0.004765 0.012994 0.037813
0.004828 0.013787 0.036650
0.003875 0.014087 0.036768
0.003891 0.014813 0.035523
0.003089 0.016036 0.034638
0.004085 0.015802 0.034602
0.004548 0.017191 0.034164
0.004889 0.014581 0.035483
0.005086 0.015570 0.034561
0.005717 0.012696 0.037694
0.006628 0.012330 0.037493
0.005780 0.013489 0.036530
0.006040 0.015271 0.034442
0.007039 0.015039 0.034403
0.006544 0.016728 0.034086
0.005549 0.016962 0.034124
0.007586 0.016561 0.034129
0.005845 0.014280 0.035365
0.006796 0.013981 0.035247
0.009031 0.014573 0.034327
0.007749 0.013682 0.035126
0.008037 0.014806 0.034365
0.008585 0.016330 0.034090
0.008616 0.013252 0.034842
0.009685 0.016258 0.034224
0.009988 0.014275 0.034207
0.009524 0.012886 0.034642
0.006735 0.013188 0.036411
0.010433 0.012522 0.034442
0.010693 0.016035 0.034192
0.008420 0.012261 0.035763
0.009239 0.011762 0.035402
0.007642 0.012824 0.036210
0.007493 0.011898 0.037210
0.011386 0.012222 0.034323
0.010983 0.014043 0.034168
0.011838 0.016034 0.034410
0.012032 0.013886 0.034214
0.012386 0.011987 0.034284
0.013430 0.011822 0.034328
0.013085 0.013736 0.034266
0.014280 0.013807 0.034568
0.014517 0.011730 0.034454
0.015668 0.011730 0.034674
0.016768 0.011654 0.034810
0.016476 0.013660 0.034837
0.015331 0.013660 0.034619
0.017910 0.011653 0.035028
0.018235 0.011675 0.035512
0.019128 0.011680 0.037048
0.020048 0.011690 0.038566
0.021680 0.011726 0.041536
0.020848 0.011702 0.040065
0.022674 0.011732 0.043062
0.025637 0.011681 0.045040
0.027588 0.011710 0.046583
0.028782 0.011730 0.048076
0.017978 0.012673 0.035483
0.018896 0.012684 0.037001
0.025014 0.012685 0.044961
0.019823 0.012692 0.038518
0.020687 0.012693 0.040070
0.021665 0.012694 0.041637
0.022420 0.012730 0.043039
0.027205 0.012710 0.046542
0.028522 0.012728 0.048056
0.017528 0.013514 0.034889
0.018747 0.013680 0.036999
0.020467 0.013702 0.040021
0.022253 0.013715 0.043067
0.018101 0.013674 0.035496
0.019687 0.013693 0.038506
0.021453 0.013701 0.041582
0.024261 0.013681 0.044863
0.026823 0.013706 0.046511
0.028271 0.013730 0.048026
0.017351 0.014686 0.035184
0.016922 0.015452 0.035490
0.014949 0.015521 0.034481
0.016066 0.015561 0.034919
0.013897 0.015669 0.034429
0.016671 0.015659 0.035381
0.018233 0.015679 0.036946
0.018505 0.014683 0.036962
0.019441 0.014697 0.038471
0.020325 0.014700 0.040014
0.021310 0.014700 0.041578
0.026592 0.014657 0.046616
0.022037 0.014727 0.043023
0.027906 0.014740 0.047970
0.022867 0.014776 0.044446
0.026006 0.015661 0.046503
0.012844 0.015818 0.034378
0.016509 0.016638 0.035407
0.022549 0.015767 0.044480
0.019078 0.015707 0.038417
0.017747 0.016688 0.036867
0.018773 0.016696 0.038419
0.019799 0.016704 0.039963
0.020818 0.016705 0.041517
0.021623 0.016729 0.043015
0.022167 0.016762 0.044470
0.020076 0.015707 0.039979
0.021879 0.015725 0.043033
0.021068 0.015700 0.041544
0.025208 0.016617 0.046491
0.027194 0.016703 0.047968
0.027683 0.015696 0.048034
0.021601 0.013749 0.112963
0.020702 0.014088 0.113271
0.022468 0.013341 0.112582
0.022328 0.013978 0.111319
0.023344 0.012950 0.112218
0.024221 0.012580 0.111888
0.025104 0.012202 0.111527
0.023064 0.014221 0.109683
0.023193 0.013566 0.110938
0.024085 0.013209 0.110594
0.026021 0.011900 0.111246
0.025022 0.012955 0.110364
0.023981 0.013926 0.109404
0.025845 0.012742 0.110181
0.024949 0.013737 0.109234
0.025940 0.013596 0.109100
0.026960 0.011650 0.111014
0.020813 0.013400 0.114503
0.021718 0.013082 0.114203
0.022605 0.012730 0.113885
0.023483 0.012343 0.113521
0.024341 0.011895 0.113099
0.025184 0.011429 0.112665
0.020876 0.012604 0.115613
0.021785 0.012287 0.115320
0.022685 0.011959 0.115014
0.023573 0.011612 0.114695
0.021822 0.011450 0.116393
0.034412 0.013333 0.095723
0.033610 0.013893 0.096248
0.034321 0.014116 0.094597
0.035163 0.013639 0.094150
0.036013 0.012257 0.094730
0.035217 0.012776 0.095203
0.036046 0.011838 0.095389
0.034650 0.012920 0.097210
0.034903 0.012561 0.098775
0.035411 0.012228 0.096542
0.035762 0.011809 0.096777
0.035707 0.011834 0.098149
0.033876 0.013552 0.097812
0.034127 0.013146 0.099311
0.033323 0.013667 0.099778
0.033068 0.014133 0.098400
0.032490 0.014155 0.100233
0.038369 0.013773 0.088421
0.038164 0.013885 0.088708
0.037457 0.013704 0.090436
0.036687 0.014287 0.090985
0.038263 0.013149 0.089911
0.038624 0.012769 0.089851
0.039113 0.011768 0.090498
0.038337 0.012345 0.091043
0.035923 0.014008 0.092617
0.037518 0.012888 0.091561
0.036712 0.013392 0.092033
0.035960 0.013076 0.093624
0.036804 0.011690 0.094200
0.036750 0.012555 0.093137
0.038360 0.011500 0.092144
0.037565 0.012012 0.092624
0.035109 0.012024 0.100136
0.031828 0.014066 0.102039
0.032673 0.013631 0.101648
0.034324 0.012644 0.100732
0.033525 0.013172 0.101204
0.031109 0.013875 0.103751
0.035251 0.011425 0.101471
0.031952 0.013436 0.103353
0.030358 0.013606 0.105377
0.031205 0.013141 0.104936
0.028524 0.014198 0.105924
0.029363 0.013977 0.105677
0.026772 0.014041 0.107644
0.034482 0.012020 0.102017
0.032929 0.012319 0.104175
0.032062 0.012725 0.104555
0.032816 0.013026 0.102974
0.033676 0.012575 0.102539
0.029611 0.011479 0.108994
0.030403 0.011789 0.107421
0.028744 0.011859 0.109341
0.032989 0.011469 0.105250
0.031286 0.011440 0.107094
0.033789 0.011863 0.103744
0.032131 0.011926 0.105680
0.031269 0.012371 0.106096
0.029516 0.012174 0.107768
0.027857 0.012233 0.109692
0.027778 0.013009 0.108556
0.026933 0.012516 0.109961
0.026862 0.013306 0.108823
0.027679 0.013728 0.107363
0.029467 0.013030 0.106706
0.030375 0.012711 0.106409
0.028580 0.013381 0.107031
0.028656 0.012625 0.108194
0.031213 0.012761 0.052578
0.030815 0.013752 0.052551
0.030166 0.013742 0.051083
0.029330 0.013751 0.049536
0.031514 0.011782 0.052577
0.030911 0.011735 0.051167
0.030087 0.011714 0.049704
0.029585 0.012746 0.049559
0.030542 0.012738 0.051125
0.032415 0.011735 0.054140
0.031835 0.012762 0.054052
0.032885 0.012714 0.055612
0.033899 0.012714 0.057119
0.033627 0.011701 0.055705
0.034546 0.011728 0.057178
0.031995 0.013799 0.055457
0.033136 0.013710 0.057044
0.034023 0.013714 0.058532
0.031499 0.013720 0.054058
0.034894 0.012704 0.058620
0.035564 0.011732 0.058664
0.036332 0.011740 0.060134
0.036752 0.011772 0.061565
0.038617 0.011755 0.067364
0.038117 0.011756 0.065914
0.037111 0.011759 0.063010
0.037499 0.011767 0.064448
0.036297 0.013719 0.065767
0.035495 0.013784 0.064255
0.035046 0.013828 0.062795
0.036859 0.013765 0.067204
0.037777 0.012792 0.067277
0.036995 0.013775 0.068620
0.036496 0.012773 0.064355
0.036021 0.012799 0.062894
0.037258 0.012779 0.065826
0.035368 0.012780 0.060024
0.035761 0.012793 0.061464
0.034898 0.013810 0.061379
0.034600 0.013776 0.059954
0.038481 0.011740 0.072959
0.038470 0.011749 0.078614
0.040245 0.011764 0.084361
0.040256 0.011770 0.085758
0.038130 0.011766 0.074340
0.039133 0.011773 0.080066
0.037757 0.011776 0.075719
0.037754 0.011775 0.077129
0.038648 0.011778 0.071575
0.038803 0.011800 0.068774
0.038785 0.011786 0.070182
0.039657 0.011785 0.081503
0.040015 0.011777 0.082940
0.039397 0.011777 0.089915
0.040039 0.011789 0.087141
0.039767 0.011774 0.088529
0.039628 0.012773 0.085707
0.039055 0.012811 0.088487
0.039412 0.012793 0.087093
0.038865 0.013767 0.084247
0.038879 0.013778 0.085648
0.038766 0.013786 0.087040
0.037525 0.012798 0.078507
0.036902 0.012807 0.077048
0.035875 0.013790 0.075556
0.036290 0.013826 0.076991
0.037712 0.013751 0.079959
0.036948 0.013745 0.078489
0.038747 0.013771 0.082837
0.039617 0.012765 0.084307
0.038454 0.013742 0.081427
0.039387 0.012779 0.082888
0.038537 0.012717 0.080057
0.039095 0.012753 0.081475
0.036768 0.013802 0.070010
0.038013 0.012778 0.068709
0.037804 0.012817 0.070100
0.036387 0.013801 0.071387
0.037526 0.012798 0.071482
0.035934 0.013849 0.072762
0.035748 0.013795 0.074144
0.037138 0.012790 0.072856
0.036842 0.012750 0.074233
0.036501 0.012786 0.075614
0.021475 0.014422 0.111750
0.019659 0.015051 0.112307
0.020583 0.014767 0.112060
0.019800 0.014418 0.113601
0.022973 0.014960 0.108506
0.023920 0.014731 0.108291
0.021308 0.014985 0.110412
0.022170 0.014573 0.109999
0.024893 0.014556 0.108132
0.032818 0.014427 0.096720
0.030269 0.014346 0.104198
0.027594 0.014477 0.106191
0.025846 0.014327 0.107916
0.029367 0.014674 0.104500
0.030982 0.014533 0.102484
0.031648 0.014625 0.100683
0.032255 0.014576 0.098734
0.035141 0.014538 0.093111
0.033472 0.014582 0.095034
0.036907 0.014718 0.079916
0.037783 0.014709 0.081386
0.037406 0.014530 0.089318
0.033144 0.014721 0.058444
0.033905 0.014725 0.059917
0.029137 0.014731 0.049558
0.030387 0.014733 0.052530
0.030919 0.014750 0.053983
0.029793 0.014744 0.051044
0.038059 0.014729 0.086971
0.035679 0.014745 0.076967
0.038218 0.014756 0.085592
0.036086 0.014765 0.078405
0.037597 0.014764 0.088359
0.038239 0.014770 0.084194
0.031937 0.014766 0.056889
0.034768 0.014805 0.064182
0.035250 0.014798 0.065644
0.031329 0.014775 0.055415
0.035993 0.014787 0.068532
0.035108 0.014789 0.074090
0.035759 0.014806 0.067099
0.035242 0.014797 0.072695
0.034267 0.014809 0.061320
0.035517 0.014817 0.071315
0.035259 0.014810 0.075505
0.034439 0.014846 0.062733
0.035794 0.014840 0.069929
0.032004 0.014969 0.097239
0.035915 0.014920 0.091582
0.038125 0.014780 0.082783
0.032634 0.015059 0.095484
0.034302 0.015060 0.093604
0.036656 0.015179 0.089932
0.031426 0.015062 0.099191
0.030822 0.015115 0.101142
0.026690 0.014802 0.106496
0.028451 0.014983 0.104793
0.030141 0.015004 0.102934
0.025781 0.015117 0.106790
0.022034 0.015217 0.108737
0.020416 0.015343 0.110729
0.027531 0.015276 0.105074
0.024838 0.015368 0.107021
0.023847 0.015505 0.107154
0.021119 0.015523 0.109025
0.026603 0.015549 0.105322
0.019496 0.015628 0.111012
0.037316 0.015227 0.088054
0.035123 0.015484 0.092115
0.031835 0.015575 0.095958
0.033474 0.015501 0.094013
0.029273 0.015409 0.103313
0.031191 0.015509 0.097762
0.030590 0.015537 0.099647
0.029994 0.015630 0.101654
0.022867 0.015668 0.107306
0.028771 0.015734 0.049510
0.032079 0.015670 0.058380
0.029918 0.015748 0.052474
0.029431 0.015752 0.050999
0.033058 0.015759 0.059819
0.030299 0.015757 0.053921
0.028368 0.015732 0.103615
0.034517 0.015729 0.075459
0.034755 0.015723 0.076897
0.035166 0.015741 0.078339
0.037419 0.015715 0.085524
0.035919 0.015729 0.079821
0.036701 0.015753 0.081275
0.021886 0.015834 0.107458
0.037227 0.015770 0.082711
0.037357 0.015774 0.084125
0.033566 0.015761 0.061275
0.030559 0.015769 0.055351
0.034460 0.015781 0.072627
0.034721 0.015788 0.071242
0.034975 0.015788 0.068445
0.034347 0.015791 0.074024
0.037125 0.015793 0.086917
0.035903 0.015827 0.090544
0.034902 0.015838 0.069850
0.030848 0.015807 0.056769
0.033875 0.015804 0.062699
0.034747 0.015808 0.067010
0.034136 0.015814 0.064130
0.034413 0.015842 0.065559
0.025693 0.015865 0.105619
0.020218 0.015856 0.109327
0.018549 0.015859 0.111232
0.036558 0.015916 0.088730
0.032621 0.015957 0.094449
0.034302 0.015976 0.092579
0.030362 0.015997 0.098218
0.020903 0.015989 0.107601
0.027453 0.016034 0.103904
0.029139 0.016058 0.102042
0.029767 0.016062 0.100164
0.024745 0.016109 0.105845
0.031034 0.016129 0.096481
0.019291 0.016128 0.109605
0.019967 0.016261 0.107838
0.023761 0.016255 0.105983
0.035062 0.016299 0.090993
0.026540 0.016356 0.104204
0.022771 0.016398 0.106120
0.018337 0.016338 0.109817
0.036366 0.016435 0.087301
0.033443 0.016431 0.093009
0.031792 0.016446 0.094903
0.035761 0.016479 0.089262
0.028249 0.016409 0.102359
0.032222 0.016688 0.059786
0.035881 0.016692 0.081228
0.034188 0.016697 0.091368
0.029535 0.016520 0.098731
0.028929 0.016537 0.100617
0.030232 0.016647 0.096955
0.020792 0.016684 0.106393
0.021782 0.016537 0.106251
0.017376 0.016554 0.109987
0.019077 0.016598 0.108184
0.025608 0.016625 0.104449
0.028275 0.016744 0.049455
0.029534 0.016746 0.052434
0.029044 0.016753 0.050964
0.030676 0.016770 0.058174
0.030053 0.016776 0.056714
0.029724 0.016789 0.053856
0.032826 0.016778 0.061199
0.033718 0.016792 0.065513
0.035013 0.016714 0.079745
0.034286 0.016749 0.078257
0.036292 0.016722 0.082646
0.036425 0.016727 0.084050
0.033950 0.016778 0.068356
0.033928 0.016757 0.066948
0.033666 0.016758 0.075380
0.033829 0.016788 0.076795
0.033587 0.016792 0.073960
0.033967 0.016795 0.069766
0.033636 0.016832 0.072558
0.033848 0.016803 0.071166
0.035855 0.017290 0.084336
0.033098 0.016796 0.062631
0.033366 0.016811 0.064066
0.029856 0.016807 0.055277
0.019791 0.016816 0.106497
0.036409 0.016706 0.085446
0.027365 0.016784 0.102724
0.024653 0.016834 0.104647
0.018803 0.016967 0.106638
0.023690 0.017040 0.104850
0.018169 0.016914 0.108481
0.030962 0.016929 0.095357
0.028063 0.016948 0.100998
0.028696 0.016993 0.099180
0.036129 0.016904 0.085855
0.032613 0.016873 0.093420
0.034926 0.016918 0.089658
0.035557 0.016984 0.087831
0.017243 0.017186 0.108764
0.022710 0.017206 0.105005
0.029407 0.017176 0.097466
0.033365 0.017187 0.091829
0.026448 0.017087 0.103016
0.034075 0.017377 0.090103
0.031762 0.017336 0.093858
0.017885 0.017249 0.106917
0.021720 0.017343 0.105135
0.025505 0.017334 0.103245
0.027192 0.017349 0.101376
-0.018769 0.017491 0.037629
-0.017680 0.017392 0.037751
-0.019768 0.017728 0.037663
-0.020809 0.017891 0.037623
-0.022893 0.018225 0.037536
-0.023936 0.018391 0.037492
-0.021804 0.018124 0.037659
-0.018708 0.018282 0.036466
-0.019747 0.018446 0.036426
-0.020790 0.018613 0.036382
-0.021832 0.018781 0.036337
-0.022876 0.018947 0.036294
-0.023919 0.019113 0.036252
-0.025008 0.019213 0.036129
-0.019688 0.019234 0.035265
-0.024946 0.019999 0.034969
-0.023905 0.019833 0.035013
-0.020774 0.019333 0.035143
-0.022858 0.019666 0.035056
-0.021818 0.019500 0.035099
-0.025841 0.021082 0.033931
-0.026032 0.020099 0.034846
-0.024753 0.020981 0.034056
-0.023707 0.020815 0.034098
-0.022668 0.020651 0.034140
-0.021626 0.020484 0.034183
-0.020581 0.020317 0.034226
-0.019582 0.020087 0.034187
-0.026330 0.022762 0.033620
-0.025289 0.022598 0.033662
-0.020162 0.021635 0.033713
-0.022250 0.021967 0.033628
-0.021206 0.021802 0.033670
-0.024245 0.022429 0.033705
-0.023250 0.022199 0.033667
-0.021522 0.023753 0.033682
-0.020523 0.023521 0.033643
0.014794 0.020224 0.104084
0.015857 0.020231 0.104091
0.014787 0.019300 0.105075
0.016880 0.020161 0.104029
0.019817 0.020596 0.102563
0.015837 0.019258 0.105055
0.017867 0.020013 0.103889
0.016043 0.017832 0.107446
0.015852 0.018349 0.106086
0.016970 0.017545 0.107204
0.016802 0.018124 0.105866
0.017781 0.017948 0.105710
0.019748 0.017636 0.105413
0.018764 0.017786 0.105558
0.020738 0.017496 0.105279
0.020755 0.018463 0.104310
0.016855 0.019169 0.104974
0.017839 0.019010 0.104825
0.018826 0.018861 0.104686
0.019777 0.018637 0.104476
0.018853 0.019862 0.103753
0.019804 0.019635 0.103539
0.013789 0.021246 0.103175
0.014854 0.021265 0.103191
0.013735 0.022054 0.102060
0.014797 0.022085 0.102084
0.015848 0.022000 0.102035
0.016843 0.021958 0.101962
0.015878 0.021230 0.103153
0.017864 0.021868 0.101883
0.018813 0.021641 0.101666
0.016900 0.021146 0.103075
0.017916 0.021040 0.102978
0.018873 0.020835 0.102787
0.011956 0.023379 0.097636
0.012978 0.023300 0.097565
0.010967 0.023517 0.097769
0.015850 0.023628 0.095972
0.014864 0.023767 0.096111
0.011025 0.022719 0.098900
0.012143 0.022675 0.100268
0.012166 0.022874 0.099053
0.013228 0.022905 0.099075
0.014161 0.022976 0.098871
0.012500 0.022603 0.100700
0.013148 0.022777 0.100265
0.013599 0.022673 0.100782
0.014148 0.022779 0.100268
0.014582 0.022593 0.100670
0.015157 0.022954 0.098859
0.013969 0.023188 0.097445
0.015028 0.023166 0.097439
0.016110 0.023087 0.097405
0.016158 0.022685 0.098839
0.017155 0.022628 0.098826
0.016153 0.022430 0.100264
0.016593 0.022378 0.100464
0.017156 0.022436 0.100271
0.018711 0.022355 0.100467
0.015149 0.022640 0.100260
0.015571 0.022467 0.100538
0.018205 0.022460 0.100313
0.017762 0.022454 0.100614
-0.017648 0.018835 0.035270
-0.016607 0.018667 0.035315
-0.017663 0.018114 0.036511
-0.016664 0.017882 0.036472
-0.015608 0.018437 0.035274
-0.014565 0.018270 0.035318
-0.015622 0.017714 0.036518
-0.013521 0.018102 0.035363
-0.014582 0.017550 0.036557
-0.013540 0.017382 0.036603
0.021703 0.018240 0.104101
0.022658 0.018954 0.102902
0.023585 0.018677 0.102638
0.025408 0.018057 0.102050
0.024514 0.018407 0.102392
0.023637 0.017855 0.103743
0.022685 0.018076 0.103953
0.024564 0.017582 0.103479
0.026292 0.017683 0.101687
-0.011481 0.017704 0.035366
-0.012479 0.017938 0.035402
-0.010438 0.017540 0.035406
0.027008 0.017894 0.100021
0.026146 0.018304 0.100404
-0.011285 0.018691 0.034447
-0.012328 0.018857 0.034405
0.025282 0.018715 0.100786
-0.008201 0.018128 0.034493
-0.009244 0.018292 0.034453
-0.010287 0.018460 0.034408
0.026894 0.018598 0.098815
0.027678 0.018945 0.097253
0.027865 0.017473 0.099634
0.028590 0.017709 0.097979
0.027760 0.018194 0.098436
-0.018689 0.019002 0.035227
0.020767 0.019428 0.103342
-0.017499 0.019756 0.034270
0.021693 0.019145 0.103078
-0.015413 0.019421 0.034358
-0.014416 0.019190 0.034319
0.024410 0.019114 0.101163
-0.016454 0.019589 0.034314
0.023513 0.019467 0.101506
0.022602 0.019777 0.101800
-0.013370 0.019024 0.034361
0.026018 0.018963 0.099140
0.026815 0.019356 0.097636
0.025940 0.019746 0.098006
0.025160 0.019406 0.099571
-0.008784 0.019678 0.034018
0.027554 0.019637 0.096038
0.024311 0.019841 0.099967
-0.009826 0.019846 0.033975
-0.018542 0.019921 0.034229
0.026686 0.020019 0.096368
-0.010825 0.020078 0.034013
0.021688 0.020078 0.102085
0.025082 0.020169 0.098392
-0.013953 0.020574 0.033886
0.020751 0.020332 0.102320
0.023432 0.020236 0.100371
0.022525 0.020549 0.100664
-0.011867 0.020242 0.033971
-0.012912 0.020410 0.033928
0.024203 0.020550 0.098761
0.025787 0.020367 0.096721
0.026449 0.020458 0.094875
-0.005118 0.017564 0.034540
-0.007202 0.017893 0.034457
-0.006161 0.017730 0.034497
-0.006744 0.019283 0.034021
-0.007742 0.019513 0.034060
-0.005743 0.019050 0.033983
-0.004078 0.017396 0.034585
-0.004700 0.018885 0.034025
-0.004015 0.020605 0.033994
-0.002617 0.018551 0.034110
-0.003614 0.018786 0.034148
-0.002971 0.020442 0.034036
0.030134 0.017416 0.095814
0.029327 0.017963 0.096336
0.028518 0.018472 0.096805
0.029241 0.018711 0.095149
0.030076 0.018235 0.094699
0.030919 0.017765 0.094253
0.031703 0.018148 0.092736
0.029974 0.018964 0.093499
0.030849 0.018570 0.093125
0.029775 0.019477 0.092078
0.030670 0.019137 0.091769
0.028398 0.019149 0.095543
0.029103 0.019360 0.093874
0.028219 0.019714 0.094191
0.027331 0.020088 0.094554
0.028898 0.019866 0.092449
0.029581 0.020017 0.090708
0.029380 0.020526 0.089280
0.028043 0.020289 0.092838
0.028751 0.020497 0.091164
-0.001571 0.018387 0.034151
-0.000577 0.018155 0.034113
-0.001974 0.020210 0.033997
-0.000934 0.020044 0.034039
0.000108 0.019879 0.034081
0.000421 0.017921 0.034076
0.001465 0.017759 0.034117
0.002507 0.017589 0.034160
0.001109 0.019645 0.034043
0.002151 0.019482 0.034085
0.033251 0.017898 0.090618
0.032547 0.017684 0.092293
0.032458 0.018435 0.091098
0.031576 0.018816 0.091469
0.032243 0.018928 0.089662
0.031224 0.019818 0.087165
0.030088 0.020388 0.087251
0.030206 0.020278 0.085750
0.031143 0.019600 0.088516
0.030432 0.019570 0.090263
0.031322 0.019228 0.089951
0.030197 0.020010 0.088754
0.032212 0.019275 0.085679
0.032205 0.019274 0.087123
0.033230 0.018683 0.087092
0.032837 0.018887 0.087693
0.033089 0.018470 0.089213
0.033900 0.017981 0.088805
0.030217 0.020157 0.084323
0.031190 0.019734 0.085711
0.031993 0.019345 0.088146
0.030236 0.020050 0.082898
0.031203 0.019621 0.084288
0.029682 0.020509 0.081564
-0.019168 0.021402 0.033675
-0.018078 0.021304 0.033798
-0.017035 0.021140 0.033839
-0.016036 0.020908 0.033801
-0.014953 0.020808 0.033924
-0.007101 0.021169 0.033948
-0.008144 0.021336 0.033906
-0.006101 0.020935 0.033910
-0.005058 0.020772 0.033952
0.001792 0.021371 0.034010
-0.013314 0.022227 0.033776
-0.011229 0.021899 0.033861
-0.012270 0.022064 0.033818
-0.010186 0.021734 0.033902
-0.009183 0.021502 0.033864
-0.003422 0.022196 0.033801
-0.002330 0.022099 0.033923
-0.001292 0.021934 0.033965
-0.000337 0.021634 0.033845
0.000751 0.021536 0.033968
-0.014310 0.022462 0.033815
-0.016397 0.022790 0.033731
-0.015354 0.022627 0.033773
-0.005464 0.022595 0.033797
-0.004419 0.022426 0.033839
-0.017437 0.022956 0.033689
-0.018479 0.023124 0.033647
-0.007458 0.023057 0.033875
-0.006458 0.022823 0.033836
0.002413 0.023050 0.034728
-0.019524 0.023287 0.033604
-0.009590 0.023323 0.033710
-0.008543 0.023154 0.033753
-0.011631 0.023716 0.033708
-0.010585 0.023551 0.033749
-0.002588 0.023742 0.034889
-0.001579 0.023714 0.034729
0.000403 0.023285 0.034832
0.001401 0.023432 0.034834
-0.000582 0.023690 0.034748
0.021889 0.022014 0.096355
0.021178 0.022164 0.097384
0.022188 0.021677 0.097361
0.022155 0.021627 0.097918
0.021292 0.022043 0.098300
0.022369 0.021148 0.099344
0.023273 0.020824 0.098998
0.020694 0.021143 0.101208
0.021598 0.020824 0.100910
0.021475 0.021495 0.099654
0.019780 0.021436 0.101487
0.020573 0.021830 0.099962
0.019659 0.022126 0.100250
0.022162 0.021972 0.095920
0.022762 0.021624 0.095979
0.022581 0.022180 0.094628
0.023523 0.021928 0.094399
0.024461 0.021671 0.094167
0.025374 0.021367 0.093874
0.025237 0.022022 0.092601
0.024601 0.021045 0.095405
0.025556 0.020812 0.095232
0.023677 0.021327 0.095690
0.023091 0.021176 0.097376
0.023937 0.020928 0.097247
0.024889 0.020699 0.097027
0.028200 0.021804 0.082909
0.028222 0.021930 0.081612
0.028460 0.022084 0.079188
0.028698 0.021603 0.080653
0.029214 0.020900 0.081536
0.029230 0.020802 0.082950
0.029205 0.020903 0.084376
0.027694 0.022063 0.085014
0.028230 0.021706 0.084430
0.029221 0.020938 0.085795
0.028240 0.021604 0.085842
0.027159 0.020667 0.093209
0.027921 0.020979 0.091622
0.026283 0.021048 0.093574
0.027050 0.021375 0.091998
0.029243 0.020864 0.087233
0.029122 0.020928 0.087762
0.028572 0.021062 0.089807
0.026894 0.021980 0.090658
0.027747 0.021551 0.090268
0.026151 0.021712 0.092307
0.028230 0.021605 0.087283
0.028326 0.021482 0.088298
0.027212 0.022232 0.088765
0.027521 0.022026 0.088828
0.026625 0.022986 0.083946
0.025836 0.023549 0.084484
0.026427 0.023514 0.082495
0.027187 0.022915 0.081952
0.027419 0.022460 0.083478
0.027247 0.023334 0.077469
0.027427 0.023091 0.078192
0.027229 0.023193 0.078872
0.026930 0.023338 0.080417
0.027697 0.022679 0.079735
0.027931 0.022263 0.081332
0.025220 0.023279 0.088841
0.026230 0.022777 0.088808
0.023948 0.023412 0.090118
0.024673 0.023651 0.088453
0.025208 0.023615 0.087419
0.023017 0.023684 0.090358
0.026877 0.022529 0.085406
0.026142 0.023019 0.085936
0.025265 0.023618 0.086475
0.027192 0.022297 0.085885
0.026211 0.022981 0.087375
0.027239 0.022258 0.087329
0.019159 0.022296 0.100268
0.018174 0.022602 0.098856
0.018176 0.022837 0.097425
0.019183 0.022726 0.097426
0.019292 0.022556 0.098801
0.020358 0.022310 0.098530
0.020187 0.022456 0.097406
0.020971 0.022304 0.096646
0.020195 0.022707 0.095989
0.021637 0.022419 0.094849
0.020703 0.022691 0.095085
0.025787 0.022825 0.089585
0.026669 0.022454 0.089215
0.025068 0.022602 0.091252
0.024126 0.022848 0.091478
0.022391 0.022710 0.093257
0.026009 0.022351 0.091023
0.023348 0.022496 0.093046
0.024299 0.022273 0.092830
0.022226 0.023302 0.091910
0.020535 0.023269 0.093742
0.023175 0.023076 0.091696
0.024866 0.023121 0.089826
0.016865 0.023523 0.095885
0.019641 0.023606 0.094090
0.021310 0.023601 0.092205
0.018695 0.023844 0.094311
0.017166 0.022921 0.097416
0.019177 0.023041 0.095995
0.019811 0.023024 0.095437
0.021434 0.022932 0.093431
0.017859 0.023403 0.095754
0.017173 0.023418 0.096014
0.018845 0.023247 0.095606
0.018167 0.023265 0.095997
0.003550 0.017425 0.034202
0.004192 0.019083 0.034088
0.003151 0.019249 0.034046
0.002798 0.021150 0.033977
0.003846 0.020970 0.034123
0.005239 0.018924 0.034134
0.004855 0.020785 0.033994
0.005907 0.020637 0.034045
0.006289 0.018778 0.034184
0.007296 0.018557 0.034152
0.006958 0.020490 0.034095
0.008394 0.018483 0.034285
0.008063 0.020418 0.034229
0.007396 0.021604 0.034743
0.009401 0.018264 0.034253
0.009003 0.020068 0.034312
0.003400 0.022950 0.034829
0.005420 0.023585 0.036102
0.004419 0.023816 0.036131
0.006411 0.023407 0.036109
0.006414 0.023845 0.037570
0.007417 0.023613 0.037545
0.006409 0.023654 0.040425
0.007402 0.023579 0.040430
0.006407 0.023841 0.039009
0.007400 0.023818 0.041866
0.008410 0.023349 0.038966
0.008407 0.023401 0.040404
0.009412 0.023301 0.040392
0.007407 0.023584 0.038988
0.007414 0.023163 0.036084
0.008404 0.022986 0.036084
0.010385 0.022439 0.036060
0.009412 0.022782 0.036054
0.009425 0.023270 0.037512
0.008416 0.023470 0.037540
0.010411 0.023067 0.037514
0.009409 0.023211 0.038959
0.010409 0.023101 0.038948
0.010409 0.023287 0.040397
0.011416 0.023181 0.040379
0.012409 0.023815 0.041879
0.011418 0.022869 0.038921
0.012420 0.023057 0.040368
0.013402 0.023638 0.041888
0.010450 0.018114 0.034314
0.011506 0.017969 0.034355
0.011134 0.019828 0.034487
0.010104 0.020014 0.034359
0.012555 0.017825 0.034405
0.012216 0.019743 0.034614
0.013354 0.021072 0.035953
0.011063 0.022358 0.036040
0.010827 0.022564 0.036271
0.012410 0.022598 0.038905
0.011420 0.022733 0.037472
0.013426 0.022798 0.040338
0.014414 0.023294 0.041841
0.012425 0.022362 0.037434
0.013390 0.022284 0.038906
0.015416 0.023695 0.043324
0.011603 0.021581 0.035585
0.012253 0.021726 0.036039
0.012498 0.021917 0.036363
0.014414 0.022506 0.040332
0.015430 0.022943 0.041792
0.014050 0.021724 0.037936
0.013406 0.021937 0.037413
0.014418 0.021848 0.038835
0.015407 0.022099 0.040312
0.016413 0.022507 0.041783
0.013251 0.019597 0.034969
0.014391 0.021280 0.037365
0.016051 0.021472 0.039741
0.016379 0.021675 0.040306
0.017406 0.021991 0.041745
0.014261 0.020337 0.035982
0.015486 0.020759 0.038058
0.017317 0.021676 0.041198
0.013561 0.017606 0.034373
0.014897 0.020574 0.036623
0.017087 0.020700 0.039703
0.015774 0.019641 0.036715
0.016644 0.019755 0.038161
0.014732 0.017658 0.034734
0.018514 0.020740 0.041269
0.018107 0.019699 0.039809
0.015603 0.017454 0.035204
0.016557 0.018664 0.036782
0.017237 0.017692 0.036813
0.018301 0.017724 0.038334
0.017630 0.018711 0.038294
0.018797 0.018729 0.039835
0.019428 0.017717 0.039911
0.016399 0.023269 0.043306
0.016400 0.023666 0.044784
0.017379 0.023386 0.046209
0.018327 0.022690 0.047593
0.017369 0.023511 0.047663
0.019398 0.023064 0.049036
0.018383 0.023550 0.049095
0.017387 0.022862 0.043283
0.017383 0.023254 0.044758
0.018445 0.022673 0.045652
0.018357 0.022722 0.046157
0.018383 0.022744 0.044712
0.019363 0.021985 0.047534
0.020385 0.022793 0.049027
0.021398 0.023722 0.050525
0.024084 0.023766 0.054743
0.019626 0.021723 0.045759
0.020404 0.021273 0.047451
0.020369 0.020834 0.045917
0.025364 0.021657 0.054756
0.021402 0.020635 0.047392
0.021170 0.019731 0.045898
0.019733 0.021698 0.044328
0.019087 0.021681 0.042824
0.022391 0.021786 0.048936
0.025270 0.021679 0.053266
0.018420 0.022632 0.044214
0.018381 0.022347 0.043242
0.019337 0.021939 0.046094
0.021393 0.022303 0.048973
0.023375 0.022537 0.050468
0.024377 0.022554 0.053307
0.024383 0.022300 0.051867
0.022371 0.023165 0.050520
0.023422 0.023105 0.051907
0.024705 0.022754 0.054807
0.021424 0.018715 0.044484
0.021769 0.017760 0.044464
0.021764 0.018868 0.045825
0.022611 0.017849 0.045872
0.020147 0.018702 0.041466
0.021093 0.018731 0.042981
0.020552 0.017708 0.041494
0.021376 0.017735 0.042992
0.021025 0.019710 0.044451
0.019594 0.019676 0.041435
0.020646 0.019706 0.042968
0.023393 0.019687 0.047595
0.022397 0.019993 0.047336
0.020450 0.020764 0.044377
0.020087 0.020671 0.042933
0.023345 0.021337 0.048962
0.024387 0.020511 0.048835
0.026192 0.020721 0.050717
0.025384 0.021026 0.050337
0.024393 0.021795 0.050400
0.025357 0.021636 0.051823
0.026729 0.020757 0.052173
0.026360 0.020887 0.053174
0.026329 0.020970 0.051777
0.026571 0.020727 0.053581
0.026327 0.020864 0.054594
0.027884 0.019769 0.053698
0.025382 0.019615 0.048765
0.025220 0.018608 0.047896
0.026443 0.018266 0.048588
0.026264 0.017662 0.047935
0.026022 0.019668 0.049306
0.026924 0.018692 0.049382
0.027686 0.017697 0.049452
0.027197 0.019715 0.050821
0.028544 0.017761 0.050909
0.027918 0.018777 0.050845
0.029061 0.017770 0.052383
0.028538 0.018770 0.052336
0.027872 0.019754 0.052284
0.026297 0.023855 0.070421
0.027275 0.023319 0.070388
0.026286 0.023439 0.068977
0.025290 0.023823 0.067589
0.027780 0.022695 0.069250
0.027283 0.022937 0.068940
0.026279 0.023180 0.067545
0.024272 0.023783 0.064755
0.025298 0.023312 0.066131
0.025250 0.023045 0.064540
0.027149 0.022695 0.067787
0.026280 0.022657 0.066086
0.026461 0.022627 0.066319
0.025596 0.022800 0.064801
0.025001 0.023584 0.062910
0.026034 0.022567 0.063919
0.027042 0.021676 0.064889
0.027430 0.021721 0.066384
0.028072 0.021739 0.067850
0.028746 0.021783 0.069304
0.028539 0.022702 0.073540
0.028264 0.022943 0.073195
0.027246 0.023693 0.074666
0.027244 0.023807 0.073261
0.027281 0.023593 0.071824
0.027266 0.023476 0.076067
0.028225 0.022788 0.076011
0.028218 0.022898 0.074607
0.029250 0.022047 0.074545
0.029524 0.021815 0.075033
0.029235 0.022038 0.075958
0.028230 0.022893 0.071783
0.028208 0.022753 0.070683
0.028444 0.022738 0.072119
0.029378 0.021785 0.072189
0.029606 0.020751 0.069391
0.029144 0.021801 0.070750
0.030017 0.020782 0.070830
0.031592 0.019721 0.073801
0.031154 0.019780 0.072342
0.030848 0.020734 0.075144
0.030621 0.020759 0.073711
0.030286 0.020799 0.072262
0.029581 0.021733 0.073625
0.030250 0.021172 0.077312
0.030614 0.020753 0.077943
0.030239 0.021280 0.075904
0.030786 0.020806 0.076548
0.030631 0.020965 0.076191
0.029276 0.021589 0.078727
0.028235 0.022552 0.077535
0.029232 0.021914 0.077362
0.032958 0.017798 0.075313
0.033306 0.017778 0.076755
0.031954 0.019704 0.076649
0.031757 0.019756 0.075219
0.032670 0.018776 0.076701
0.032425 0.018781 0.075270
0.031964 0.019704 0.078056
0.032807 0.018789 0.078121
0.033576 0.017793 0.078181
0.031224 0.020259 0.078661
0.030318 0.020595 0.079725
0.030291 0.020855 0.078713
0.029470 0.021021 0.080110
0.033116 0.018711 0.079569
0.032247 0.019406 0.080019
0.033977 0.017817 0.079617
0.031752 0.019744 0.079445
0.031269 0.019950 0.080059
0.030532 0.020086 0.081181
0.030238 0.020170 0.081488
0.034235 0.018315 0.085258
0.034245 0.018425 0.084210
0.034732 0.017442 0.088226
0.033650 0.018375 0.087230
0.034485 0.017918 0.086841
0.035322 0.017417 0.086318
0.034222 0.018500 0.082796
0.035312 0.017786 0.084070
0.035085 0.017884 0.084874
0.034221 0.018238 0.081361
0.034750 0.017689 0.081125
0.035262 0.017740 0.082651
0.033292 0.018750 0.085643
0.033222 0.018900 0.084242
0.032240 0.019191 0.084258
0.031217 0.019754 0.081457
0.031244 0.019558 0.082865
0.032223 0.019261 0.082845
0.032257 0.019323 0.081432
0.033241 0.018913 0.082822
0.033240 0.018901 0.081403
0.033399 0.018737 0.080994
0.028919 0.018789 0.058013
0.028471 0.018831 0.056557
0.027373 0.020759 0.057871
0.028213 0.019731 0.057973
0.027619 0.019760 0.056497
0.027553 0.019815 0.055075
0.029558 0.018824 0.059470
0.030539 0.018785 0.060991
0.029283 0.019795 0.060879
0.028802 0.019805 0.059406
0.029300 0.017769 0.053826
0.028756 0.018751 0.053781
0.029206 0.017799 0.055224
0.028571 0.018805 0.055167
0.029200 0.017804 0.056629
0.029596 0.017827 0.058047
0.031372 0.017593 0.059757
0.024985 0.023794 0.057655
0.025334 0.023797 0.059106
0.024583 0.023765 0.056208
0.026402 0.022820 0.059198
0.026638 0.022605 0.061985
0.026736 0.022785 0.060663
0.025826 0.023101 0.062449
0.025598 0.023646 0.061049
0.027523 0.021817 0.062154
0.026836 0.022061 0.063454
0.027636 0.021512 0.062915
0.025110 0.022777 0.056250
0.025821 0.022741 0.057742
0.026592 0.021753 0.057813
0.028520 0.020798 0.062235
0.027688 0.021846 0.060737
0.027361 0.021766 0.059296
0.028455 0.020849 0.060796
0.028135 0.020777 0.059360
0.026392 0.020802 0.054968
0.026631 0.020783 0.056397
0.025844 0.021757 0.056329
0.031861 0.018722 0.071004
0.032151 0.018762 0.072431
0.032863 0.017820 0.073892
0.032937 0.017781 0.072496
0.032376 0.018742 0.073863
0.031409 0.018778 0.069544
0.032936 0.017781 0.071088
0.031440 0.018816 0.068132
0.032891 0.017736 0.069675
0.031431 0.018645 0.062520
0.032684 0.017777 0.064012
0.031722 0.018687 0.063940
0.032045 0.017768 0.061134
0.032428 0.017772 0.062580
0.031742 0.018713 0.066755
0.031763 0.018741 0.065347
0.032814 0.017783 0.065435
0.032804 0.017776 0.068258
0.032906 0.017748 0.066857
0.029447 0.019850 0.062308
0.028259 0.020797 0.063629
0.028626 0.020406 0.063844
0.027857 0.020961 0.064313
0.027816 0.020879 0.064993
0.028900 0.019987 0.065084
0.029244 0.019932 0.063711
0.028961 0.020737 0.067928
0.030690 0.019820 0.070880
0.028222 0.020754 0.066446
0.028985 0.019925 0.066490
0.030300 0.019812 0.069438
0.029679 0.019834 0.067969
-0.026689 0.024645 0.033552
-0.024606 0.024316 0.033636
-0.025647 0.024483 0.033594
-0.023609 0.024083 0.033597
-0.022565 0.023917 0.033639
-0.018885 0.024943 0.033495
-0.017799 0.024843 0.033618
-0.019883 0.025175 0.033534
-0.020926 0.025338 0.033492
-0.022969 0.025736 0.033489
-0.021924 0.025571 0.033531
-0.023966 0.025967 0.033528
-0.025008 0.026134 0.033486
-0.026006 0.026366 0.033525
-0.012598 0.026434 0.042054
-0.012609 0.026419 0.043484
-0.016581 0.026711 0.035587
-0.013606 0.026680 0.043502
-0.013608 0.026757 0.042089
-0.015608 0.026925 0.037809
-0.013602 0.026871 0.040666
-0.014606 0.026932 0.043526
-0.016025 0.027007 0.037572
-0.017504 0.027048 0.035785
-0.018396 0.027420 0.036084
-0.018596 0.027580 0.036422
-0.017618 0.027522 0.037867
-0.016909 0.027339 0.037975
-0.020760 0.027738 0.034720
-0.019309 0.027779 0.036282
-0.018613 0.027792 0.037885
-0.019612 0.027885 0.036467
-0.019791 0.027631 0.034700
-0.018768 0.027695 0.034185
-0.021633 0.028053 0.035044
-0.020618 0.028109 0.036492
-0.020256 0.028012 0.036506
-0.019615 0.028030 0.037910
-0.018619 0.028048 0.039344
-0.014598 0.026986 0.039240
-0.015604 0.027222 0.039264
-0.014606 0.027117 0.040687
-0.014608 0.027012 0.042113
-0.015602 0.027203 0.043550
-0.016628 0.027514 0.039304
-0.015611 0.027480 0.040721
-0.016610 0.027424 0.043575
-0.015599 0.027290 0.042132
-0.019627 0.027710 0.045029
-0.016619 0.027592 0.042164
-0.017615 0.027870 0.042187
-0.016610 0.027739 0.040743
-0.017597 0.027753 0.039305
-0.018621 0.027692 0.045030
-0.017610 0.027663 0.043599
-0.017623 0.027790 0.045042
-0.016623 0.027831 0.045036
-0.018613 0.027914 0.043621
-0.017615 0.027966 0.040764
-0.015626 0.027959 0.045040
-0.014622 0.027969 0.045030
-0.012625 0.027924 0.045057
-0.013624 0.028027 0.045081
-0.022491 0.028180 0.034851
-0.023525 0.028394 0.034929
-0.021593 0.028356 0.036484
-0.024541 0.028704 0.034994
-0.025512 0.028739 0.034929
-0.022590 0.028613 0.036504
-0.021595 0.028503 0.037930
-0.020614 0.028302 0.037929
-0.020601 0.028509 0.039366
-0.019603 0.028238 0.039346
-0.022610 0.028818 0.039397
-0.022603 0.028702 0.037951
-0.021608 0.028712 0.039391
-0.023595 0.028825 0.036530
-0.023601 0.028835 0.037957
-0.021610 0.028871 0.040833
-0.025431 0.029084 0.035767
-0.024598 0.029083 0.036549
-0.019612 0.028493 0.040807
-0.018610 0.028248 0.040786
-0.020616 0.028627 0.042247
-0.020599 0.028689 0.040818
-0.021611 0.028776 0.042261
-0.020624 0.028340 0.043647
-0.019618 0.028138 0.043638
-0.018610 0.028144 0.042208
-0.019622 0.028457 0.042233
-0.018639 0.028429 0.046527
-0.017638 0.028678 0.046551
-0.016634 0.028918 0.046584
-0.011624 0.028143 0.045111
-0.015636 0.029180 0.046608
0.013028 0.029044 0.091631
0.014713 0.029084 0.089740
0.010175 0.025961 0.096292
0.010042 0.024738 0.097029
0.009339 0.028303 0.094726
0.009295 0.027271 0.095651
0.010266 0.027089 0.095468
0.010265 0.028025 0.094477
0.010313 0.029060 0.093566
0.011245 0.027854 0.094317
0.011225 0.026884 0.095281
0.011220 0.028744 0.093265
0.012157 0.028496 0.093034
0.012165 0.027560 0.094044
0.013091 0.027296 0.093789
0.013079 0.028204 0.092760
0.013987 0.027884 0.092457
0.013922 0.028705 0.091315
0.013951 0.026883 0.093397
0.014778 0.026398 0.092939
0.014794 0.028309 0.090940
0.015633 0.026903 0.091527
0.014820 0.027440 0.092035
0.015657 0.026010 0.092573
0.011123 0.025729 0.096083
0.013008 0.025242 0.095623
0.012075 0.025496 0.095866
0.012170 0.026639 0.095056
0.013046 0.026236 0.094678
0.013023 0.024196 0.096517
0.013901 0.023969 0.096300
0.011028 0.024585 0.096885
0.013916 0.024923 0.095324
0.012008 0.024421 0.096736
0.017712 0.024006 0.094460
0.016705 0.024118 0.094555
0.015747 0.024319 0.094754
0.014824 0.024605 0.095027
0.014772 0.025434 0.093917
0.013889 0.025787 0.094257
0.016599 0.024824 0.093338
0.015670 0.025102 0.093606
-0.016752 0.024675 0.033660
-0.015764 0.026378 0.035327
-0.015124 0.026666 0.037267
-0.014612 0.026645 0.037790
-0.013602 0.026722 0.039218
-0.015712 0.024513 0.033701
-0.015579 0.025969 0.034818
-0.014595 0.026432 0.036324
-0.013602 0.026427 0.037762
-0.012607 0.026434 0.039201
-0.014759 0.024214 0.033582
-0.014578 0.025972 0.034825
-0.013602 0.026139 0.036308
-0.012598 0.026187 0.037741
-0.013575 0.025591 0.034786
-0.012598 0.025885 0.036288
-0.011605 0.025999 0.037744
-0.012607 0.026598 0.040646
-0.011602 0.026374 0.040625
-0.010609 0.026227 0.043444
-0.011605 0.026270 0.042047
-0.011608 0.026309 0.043469
-0.010626 0.028151 0.045111
-0.009626 0.028293 0.045114
-0.009602 0.025949 0.042010
-0.010607 0.026126 0.042042
-0.008613 0.026150 0.043420
-0.009613 0.026236 0.043442
-0.010599 0.026279 0.040615
-0.011600 0.026330 0.039190
-0.008624 0.028636 0.045192
-0.007626 0.028662 0.045174
-0.013673 0.024115 0.033704
-0.010597 0.026222 0.039180
-0.012727 0.025680 0.034894
-0.012627 0.023947 0.033746
-0.011493 0.025631 0.036278
-0.010590 0.025840 0.037704
-0.009599 0.026083 0.039174
-0.010499 0.025496 0.036206
-0.010806 0.025597 0.034295
-0.009467 0.025425 0.036222
-0.008587 0.025614 0.037684
-0.011756 0.025836 0.034513
-0.009589 0.025720 0.037697
-0.008594 0.025983 0.039164
-0.007597 0.025939 0.039172
-0.008602 0.026095 0.040615
-0.009602 0.026217 0.040621
-0.007602 0.025971 0.040606
-0.006600 0.025863 0.040596
-0.008607 0.025864 0.042026
-0.007610 0.025804 0.042040
-0.005606 0.025650 0.042007
-0.006608 0.025752 0.042021
-0.006611 0.026115 0.043438
-0.007613 0.026183 0.043471
-0.005603 0.026031 0.043410
-0.004600 0.025868 0.043418
-0.004630 0.028262 0.045175
-0.003622 0.027923 0.045102
-0.006626 0.028562 0.045146
-0.005627 0.028541 0.045171
-0.006576 0.024335 0.034683
-0.008327 0.024554 0.034913
-0.007572 0.024460 0.034692
-0.009946 0.025192 0.033902
-0.008443 0.025090 0.035898
-0.007582 0.025079 0.036205
-0.008919 0.025125 0.033847
-0.007420 0.024927 0.035877
-0.006580 0.024997 0.036182
-0.005582 0.024956 0.036199
-0.004589 0.025235 0.037665
-0.001606 0.025163 0.043402
-0.008587 0.025275 0.036240
-0.005587 0.025363 0.037673
-0.007587 0.025472 0.037680
-0.006591 0.025435 0.037690
-0.004596 0.025596 0.039143
-0.006594 0.025739 0.039145
-0.005597 0.025709 0.039152
-0.002606 0.025245 0.041989
-0.003599 0.025500 0.040571
-0.003603 0.025390 0.041994
-0.004602 0.025534 0.042000
-0.003596 0.025739 0.043415
-0.004600 0.025649 0.040579
-0.002610 0.025519 0.043445
-0.005602 0.025838 0.040601
-0.002616 0.027433 0.045044
-0.001635 0.028917 0.046669
-0.002630 0.029084 0.046640
-0.000608 0.026387 0.044865
-0.001622 0.027024 0.045044
0.000369 0.028689 0.046632
-0.000630 0.028823 0.046634
-0.005576 0.024107 0.034731
-0.004580 0.024880 0.036176
-0.003595 0.025473 0.039133
-0.002600 0.025358 0.040561
-0.003587 0.025221 0.037670
-0.002596 0.025347 0.039126
-0.004580 0.024052 0.034774
-0.001604 0.025199 0.040553
-0.001598 0.025029 0.041966
-0.000597 0.024974 0.043361
-0.000607 0.024869 0.041960
0.000401 0.024969 0.043371
0.000389 0.026358 0.044895
0.001381 0.026314 0.044939
0.001372 0.028457 0.046597
0.002374 0.028332 0.046588
-0.003581 0.024826 0.036197
0.000399 0.024642 0.041938
-0.002587 0.025125 0.037658
-0.001598 0.025210 0.039116
-0.000601 0.024977 0.040533
-0.003577 0.023991 0.034729
-0.002583 0.024705 0.036187
-0.001590 0.025054 0.037671
-0.000599 0.025047 0.039103
0.000392 0.024797 0.040520
0.001398 0.024850 0.043356
0.002383 0.026196 0.044929
0.003381 0.028081 0.046573
0.005369 0.028734 0.049521
0.004360 0.028815 0.048104
0.005281 0.029212 0.050993
0.018211 0.028048 0.084868
0.017230 0.028582 0.083490
0.017679 0.028353 0.085219
0.018228 0.028178 0.082050
0.018215 0.028170 0.083462
0.019206 0.027640 0.083424
0.017235 0.028816 0.080684
0.016207 0.029153 0.082114
0.016224 0.029078 0.083519
0.017215 0.028662 0.082081
0.017201 0.028667 0.084907
0.016232 0.029105 0.084939
0.015971 0.029198 0.085987
0.016848 0.028831 0.085679
0.016382 0.028162 0.088880
0.015583 0.028685 0.089361
0.016256 0.028843 0.087595
0.017211 0.027679 0.088423
0.018070 0.027241 0.087985
0.017067 0.028336 0.087128
0.017904 0.027863 0.086672
0.018734 0.027382 0.086215
0.018921 0.026814 0.087593
0.019602 0.026987 0.085835
0.019219 0.027423 0.084826
0.020482 0.026609 0.085461
0.015616 0.027820 0.090475
0.016536 0.026578 0.091221
0.016457 0.027354 0.090029
0.017448 0.026264 0.090927
0.017361 0.027030 0.089725
0.018343 0.025928 0.090606
0.018238 0.026642 0.089352
0.021686 0.025002 0.087818
0.020842 0.025449 0.088215
0.019257 0.025618 0.090324
0.019978 0.025853 0.088598
0.019109 0.026251 0.088976
0.020671 0.026041 0.086846
0.019795 0.026424 0.087217
0.017575 0.024649 0.093180
0.018557 0.024487 0.093031
0.020417 0.023947 0.092516
0.019509 0.024267 0.092819
0.021182 0.024273 0.090936
0.020290 0.024620 0.091251
0.022089 0.023951 0.090633
0.021905 0.024507 0.089270
0.016552 0.025662 0.092242
0.017480 0.025407 0.091997
0.018427 0.025172 0.091770
0.021026 0.024880 0.089593
0.020148 0.025260 0.089965
0.019385 0.024942 0.091556
0.022821 0.024207 0.088977
0.021537 0.025639 0.086463
0.022550 0.024588 0.087385
0.021218 0.026404 0.084759
0.021367 0.026249 0.085150
