ply
format ascii 1.0
element vertex 1667
property float x
property float y
property float z
end_header
-0.075420 -0.046155 0.111293
-0.074385 -0.046370 0.111313
-0.073389 -0.046617 0.111282
-0.080124 -0.043837 0.110623
-0.079489 -0.045300 0.111206
-0.078216 -0.044452 0.110396
-0.079170 -0.044143 0.110508
-0.076175 -0.044859 0.110468
-0.077209 -0.044694 0.110378
-0.075091 -0.044975 0.110634
-0.073970 -0.045052 0.110854
-0.077644 -0.046713 0.112189
-0.078644 -0.046473 0.112204
-0.079594 -0.046168 0.112319
-0.074757 -0.047599 0.111898
-0.073760 -0.047846 0.111876
-0.076657 -0.046977 0.112144
-0.075706 -0.047285 0.112028
-0.077788 -0.047636 0.113218
-0.079498 -0.046765 0.113845
-0.078637 -0.047197 0.113551
-0.075986 -0.048390 0.112794
-0.077017 -0.047977 0.112922
-0.072479 -0.043885 0.110508
-0.071352 -0.043955 0.110742
-0.070146 -0.043906 0.111146
-0.069605 -0.042429 0.110911
-0.068342 -0.042330 0.111385
-0.067749 -0.040769 0.111258
-0.072930 -0.045240 0.110914
-0.071854 -0.045372 0.111061
-0.068865 -0.043813 0.111591
-0.066983 -0.042075 0.112069
-0.070627 -0.045342 0.111419
-0.067584 -0.043642 0.112197
-0.072302 -0.046744 0.111428
-0.072677 -0.047983 0.112018
-0.071123 -0.046757 0.111741
-0.071544 -0.048067 0.112225
-0.069762 -0.048234 0.112838
-0.070375 -0.048069 0.112557
-0.069833 -0.046585 0.112058
-0.069121 -0.047411 0.112747
-0.069412 -0.045291 0.111827
-0.068112 -0.045126 0.112409
-0.066881 -0.043614 0.112599
-0.068590 -0.046566 0.112767
-0.067356 -0.044695 0.112647
-0.067858 -0.045759 0.112732
-0.066415 -0.042524 0.112558
-0.065884 -0.045149 0.114191
-0.064982 -0.042967 0.114139
-0.065440 -0.044056 0.114174
-0.059492 -0.039656 0.107014
-0.058500 -0.039714 0.107052
-0.057499 -0.039830 0.107052
-0.056500 -0.039847 0.107064
-0.055498 -0.039947 0.107053
-0.054495 -0.039877 0.107078
-0.053496 -0.039833 0.107052
-0.047499 -0.039959 0.107059
-0.052492 -0.039743 0.107066
-0.048495 -0.039685 0.107035
-0.060493 -0.039530 0.107007
-0.062490 -0.039400 0.106999
-0.061496 -0.039425 0.107016
-0.051492 -0.039398 0.107057
-0.063490 -0.039265 0.106988
-0.049507 -0.039266 0.107045
-0.066051 -0.041242 0.112460
-0.064559 -0.041767 0.114070
-0.064493 -0.039043 0.106993
-0.050502 -0.039073 0.107064
-0.026483 -0.041173 0.105687
-0.025474 -0.041588 0.105723
-0.045499 -0.040113 0.107082
-0.044494 -0.040123 0.107088
-0.043494 -0.040105 0.107078
-0.026528 -0.040463 0.107170
-0.027509 -0.040115 0.107088
-0.025498 -0.040833 0.107106
-0.031498 -0.039567 0.107032
-0.041458 -0.039305 0.107073
-0.032504 -0.039333 0.107028
-0.046497 -0.040068 0.107057
-0.042486 -0.039863 0.107068
-0.028506 -0.039855 0.107069
-0.029496 -0.039813 0.107041
-0.030513 -0.039642 0.107080
-0.026503 -0.039716 0.108470
-0.025516 -0.040126 0.108511
-0.085605 -0.048769 0.119006
-0.085319 -0.048497 0.117662
-0.084919 -0.048299 0.117035
-0.084269 -0.048813 0.117693
-0.083982 -0.047875 0.115583
-0.084546 -0.049092 0.119028
-0.084507 -0.049062 0.120355
-0.083932 -0.048557 0.117006
-0.082995 -0.048125 0.115554
-0.082932 -0.047356 0.114342
-0.082938 -0.048765 0.116994
-0.083007 -0.048971 0.117688
-0.083201 -0.049201 0.119017
-0.083231 -0.049216 0.120353
-0.085825 -0.046492 0.114595
-0.086732 -0.047116 0.116264
-0.086781 -0.046920 0.115997
-0.085893 -0.047313 0.115781
-0.085850 -0.047652 0.116285
-0.084964 -0.047622 0.115612
-0.084921 -0.046865 0.114388
-0.083962 -0.047151 0.114292
-0.087151 -0.047490 0.117629
-0.087413 -0.047705 0.118983
-0.086689 -0.048406 0.120341
-0.086282 -0.048042 0.117641
-0.086567 -0.048301 0.118992
-0.085741 -0.048887 0.120359
-0.085729 -0.048841 0.121702
-0.084584 -0.049045 0.121705
-0.086698 -0.048360 0.121690
-0.085610 -0.048656 0.123026
-0.084481 -0.048948 0.123027
-0.084840 -0.049235 0.124371
-0.084614 -0.050277 0.128516
-0.085140 -0.049465 0.125756
-0.084365 -0.050105 0.125772
-0.084570 -0.050267 0.127140
-0.084026 -0.049827 0.124392
-0.083334 -0.049239 0.121705
-0.083503 -0.049342 0.123045
-0.083278 -0.050465 0.124440
-0.083771 -0.050889 0.127162
-0.083588 -0.050749 0.125784
-0.083812 -0.050894 0.128533
-0.083741 -0.050775 0.129905
-0.082424 -0.051034 0.124446
-0.082788 -0.051363 0.125806
-0.083055 -0.051538 0.128552
-0.082974 -0.051505 0.127181
-0.082934 -0.051386 0.129921
-0.082617 -0.049851 0.123078
-0.082710 -0.051119 0.131285
-0.081904 -0.048214 0.115723
-0.081811 -0.047449 0.114560
-0.081680 -0.048670 0.117485
-0.081732 -0.049074 0.120346
-0.081475 -0.048947 0.118981
-0.081909 -0.049251 0.121685
-0.081595 -0.050413 0.123081
-0.080508 -0.049920 0.121673
-0.080531 -0.050917 0.123088
-0.080383 -0.049226 0.118990
-0.080198 -0.049082 0.117632
-0.081079 -0.048673 0.117571
-0.080898 -0.049657 0.121685
-0.080724 -0.048162 0.116228
-0.080620 -0.047462 0.114932
-0.080633 -0.049427 0.120347
-0.081925 -0.051923 0.125820
-0.081548 -0.051610 0.124491
-0.081503 -0.052410 0.127419
-0.082117 -0.052076 0.127195
-0.081477 -0.052479 0.128835
-0.080470 -0.052685 0.130248
-0.082197 -0.052104 0.128571
-0.081131 -0.052448 0.129963
-0.082075 -0.051953 0.129944
-0.081466 -0.052209 0.130234
-0.081838 -0.051668 0.131303
-0.081462 -0.051728 0.131630
-0.080467 -0.052194 0.131637
-0.080489 -0.051528 0.133061
-0.079848 -0.048758 0.116269
-0.079540 -0.049786 0.117686
-0.079778 -0.048582 0.115912
-0.079640 -0.047672 0.114880
-0.079737 -0.049952 0.119028
-0.079867 -0.050061 0.120360
-0.080065 -0.050242 0.121688
-0.079495 -0.050727 0.121710
-0.079522 -0.051258 0.123111
-0.078841 -0.048194 0.114440
-0.079195 -0.049480 0.116328
-0.078983 -0.049122 0.115456
-0.079509 -0.052900 0.130274
-0.079498 -0.051907 0.133078
-0.079489 -0.052476 0.131664
-0.078010 -0.048672 0.114072
-0.078500 -0.053034 0.130283
-0.077497 -0.053123 0.130279
-0.076497 -0.052993 0.130271
-0.077496 -0.052730 0.131676
-0.078485 -0.052680 0.131655
-0.076496 -0.052644 0.131682
-0.078490 -0.052109 0.133065
-0.077498 -0.052160 0.133088
-0.076498 -0.052141 0.133080
-0.088296 -0.045832 0.116235
-0.088391 -0.045195 0.115479
-0.089432 -0.045505 0.117571
-0.088717 -0.046210 0.117597
-0.089001 -0.046452 0.118943
-0.089139 -0.046553 0.120288
-0.088372 -0.047175 0.121658
-0.088341 -0.047180 0.120307
-0.087953 -0.046872 0.117604
-0.088210 -0.047099 0.118977
-0.087614 -0.046517 0.116272
-0.087570 -0.045661 0.115156
-0.086697 -0.046077 0.114875
-0.087550 -0.047817 0.120326
-0.090279 -0.043583 0.116199
-0.090689 -0.043925 0.117520
-0.090084 -0.044735 0.117534
-0.089979 -0.044138 0.116378
-0.090395 -0.045009 0.118903
-0.089908 -0.045860 0.121615
-0.090556 -0.045120 0.120241
-0.090578 -0.045101 0.121592
-0.089690 -0.044395 0.116203
-0.089199 -0.044703 0.115860
-0.089007 -0.045125 0.116210
-0.089097 -0.043804 0.114815
-0.089717 -0.045746 0.118919
-0.089865 -0.045854 0.120262
-0.089153 -0.046529 0.121635
-0.089834 -0.045747 0.122953
-0.089086 -0.046421 0.122978
-0.088953 -0.046245 0.124321
-0.088305 -0.047069 0.122998
-0.088169 -0.046883 0.124336
-0.087556 -0.047780 0.121673
-0.087518 -0.047706 0.123015
-0.087372 -0.047506 0.124348
-0.088016 -0.046683 0.125695
-0.087247 -0.047326 0.125707
-0.087167 -0.047193 0.127065
-0.087159 -0.047139 0.128427
-0.086661 -0.048285 0.123026
-0.085718 -0.048699 0.124363
-0.085859 -0.048768 0.125737
-0.086577 -0.048115 0.124349
-0.086529 -0.048030 0.125714
-0.085970 -0.048832 0.127103
-0.086050 -0.048867 0.128472
-0.086651 -0.048039 0.128453
-0.086592 -0.048036 0.127084
-0.086601 -0.047941 0.129822
-0.086439 -0.047746 0.131188
-0.085978 -0.048745 0.129848
-0.085804 -0.048535 0.131212
-0.085476 -0.048170 0.132564
-0.085378 -0.049612 0.128494
-0.085327 -0.049602 0.127125
-0.084525 -0.050139 0.129883
-0.085307 -0.049499 0.129862
-0.084300 -0.049873 0.131249
-0.083509 -0.050503 0.131270
-0.083194 -0.050147 0.132626
-0.082350 -0.050737 0.132665
-0.081452 -0.051112 0.133020
-0.081895 -0.050253 0.134036
-0.081017 -0.050792 0.134048
-0.079492 -0.051176 0.134473
-0.080455 -0.050865 0.134426
-0.078478 -0.051460 0.134439
-0.077494 -0.051502 0.134462
-0.076499 -0.051517 0.134472
-0.078483 -0.050645 0.135851
-0.076498 -0.050768 0.135856
-0.077491 -0.050759 0.135849
-0.085098 -0.049250 0.131233
-0.083986 -0.049520 0.132609
-0.080536 -0.050264 0.135397
-0.079479 -0.050417 0.135850
-0.084766 -0.048883 0.132585
-0.082749 -0.049672 0.134001
-0.081472 -0.049767 0.135361
-0.080459 -0.050032 0.135827
-0.084338 -0.048422 0.133967
-0.083546 -0.049048 0.133987
-0.082286 -0.049175 0.135367
-0.080874 -0.049153 0.136754
-0.079417 -0.049578 0.137236
-0.078481 -0.049791 0.137240
-0.076499 -0.049920 0.137250
-0.077491 -0.049917 0.137247
-0.089862 -0.043260 0.115281
-0.090595 -0.042657 0.115833
-0.091258 -0.041708 0.116106
-0.091292 -0.042037 0.116401
-0.090816 -0.042702 0.116185
-0.091259 -0.043065 0.117481
-0.091779 -0.042175 0.117463
-0.091805 -0.043485 0.121541
-0.091774 -0.043497 0.120197
-0.091589 -0.043356 0.118845
-0.090979 -0.044165 0.118866
-0.091159 -0.044302 0.120221
-0.091201 -0.044321 0.121567
-0.092092 -0.042460 0.118829
-0.092306 -0.042617 0.120170
-0.091152 -0.044232 0.122908
-0.090523 -0.045017 0.122929
-0.089705 -0.045576 0.124293
-0.089509 -0.045333 0.125659
-0.090400 -0.044851 0.124268
-0.088793 -0.046040 0.125677
-0.087853 -0.046465 0.127045
-0.087722 -0.046282 0.128407
-0.088562 -0.045766 0.127032
-0.089207 -0.044981 0.127019
-0.088332 -0.045483 0.128385
-0.091748 -0.043384 0.122888
-0.091025 -0.044057 0.124245
-0.090125 -0.044530 0.125637
-0.087110 -0.047043 0.129792
-0.087568 -0.046086 0.129767
-0.088108 -0.045217 0.129743
-0.087418 -0.045900 0.131128
-0.086953 -0.046850 0.131154
-0.086716 -0.046581 0.132512
-0.086121 -0.047395 0.132549
-0.085807 -0.047046 0.133905
-0.085112 -0.047771 0.133936
-0.083875 -0.047921 0.135332
-0.083134 -0.048595 0.135327
-0.086419 -0.046243 0.133874
-0.084652 -0.047278 0.135301
-0.083445 -0.047450 0.136657
-0.082604 -0.048032 0.136700
-0.081811 -0.048659 0.136716
-0.081255 -0.048060 0.138069
-0.080437 -0.049095 0.137229
-0.080457 -0.048117 0.138622
-0.082056 -0.047447 0.138062
-0.079463 -0.048583 0.138625
-0.078464 -0.048902 0.138605
-0.077487 -0.048967 0.138654
-0.076498 -0.049060 0.138640
-0.077474 -0.048070 0.140015
-0.076491 -0.048096 0.140037
-0.067429 -0.048124 0.114212
-0.066854 -0.047228 0.114225
-0.066284 -0.046332 0.114247
-0.066145 -0.048269 0.115702
-0.066755 -0.049141 0.115724
-0.065565 -0.047377 0.115703
-0.065100 -0.046366 0.115729
-0.064587 -0.047102 0.117148
-0.065640 -0.049004 0.117150
-0.065073 -0.048105 0.117149
-0.064736 -0.048611 0.118589
-0.064252 -0.047609 0.118577
-0.065270 -0.049592 0.118619
-0.064028 -0.047923 0.119984
-0.064533 -0.048918 0.120008
-0.065111 -0.049809 0.120024
-0.064136 -0.046038 0.117113
-0.063780 -0.046533 0.118542
-0.064655 -0.045276 0.115706
-0.063536 -0.046925 0.119961
-0.063697 -0.044917 0.117092
-0.063417 -0.045328 0.118511
-0.063158 -0.045728 0.119928
-0.064226 -0.044104 0.115635
-0.063822 -0.042911 0.115596
-0.063309 -0.043645 0.117017
-0.062973 -0.044154 0.118457
-0.062679 -0.044641 0.119898
-0.062592 -0.044743 0.121300
-0.066566 -0.051225 0.122847
-0.066776 -0.050920 0.124253
-0.067539 -0.051573 0.124252
-0.066376 -0.049733 0.125650
-0.067110 -0.050425 0.125666
-0.067875 -0.051085 0.125664
-0.065733 -0.050673 0.121445
-0.065109 -0.049811 0.121429
-0.065876 -0.050466 0.122838
-0.066077 -0.050164 0.124251
-0.065247 -0.049606 0.122825
-0.065411 -0.049377 0.124234
-0.065693 -0.048959 0.125639
-0.065059 -0.048098 0.125632
-0.064622 -0.048738 0.122809
-0.064798 -0.048500 0.124215
-0.064515 -0.048925 0.121409
-0.064451 -0.047275 0.125591
-0.064232 -0.047596 0.124186
-0.064093 -0.047809 0.122778
-0.064162 -0.045950 0.126957
-0.063999 -0.047934 0.121381
-0.063862 -0.046383 0.125566
-0.063488 -0.046941 0.121359
-0.063571 -0.046822 0.122754
-0.063691 -0.046617 0.124164
-0.063010 -0.045859 0.121328
-0.062535 -0.044762 0.122703
-0.063163 -0.045628 0.124137
-0.063044 -0.045765 0.122730
-0.075487 -0.052801 0.130275
-0.075502 -0.052493 0.131669
-0.074490 -0.052663 0.128852
-0.074496 -0.052409 0.130260
-0.074513 -0.052117 0.131657
-0.074258 -0.052400 0.129780
-0.074417 -0.052182 0.131200
-0.073498 -0.052284 0.128836
-0.073348 -0.051975 0.129801
-0.072490 -0.052430 0.127430
-0.072139 -0.051978 0.128420
-0.072518 -0.051975 0.128806
-0.072440 -0.051541 0.129821
-0.071489 -0.052187 0.127424
-0.071173 -0.051609 0.128436
-0.070747 -0.052198 0.127025
-0.069841 -0.051763 0.127049
-0.070267 -0.051156 0.128451
-0.068654 -0.051717 0.125650
-0.069003 -0.051221 0.127063
-0.073570 -0.051664 0.131215
-0.075509 -0.051976 0.133058
-0.074509 -0.051640 0.133060
-0.073793 -0.051352 0.132633
-0.072674 -0.051196 0.131225
-0.071489 -0.051142 0.129823
-0.068226 -0.050577 0.127075
-0.069380 -0.050677 0.128452
-0.067433 -0.049970 0.127053
-0.070625 -0.050643 0.129856
-0.069767 -0.050114 0.129835
-0.071734 -0.050786 0.131221
-0.070878 -0.050275 0.131245
-0.066718 -0.049226 0.127063
-0.068621 -0.050010 0.128453
-0.072858 -0.050923 0.132623
-0.075498 -0.051307 0.134480
-0.074033 -0.051006 0.134040
-0.074508 -0.051034 0.134461
-0.069012 -0.049450 0.129833
-0.070088 -0.049648 0.131265
-0.069338 -0.048967 0.131255
-0.069561 -0.048647 0.132665
-0.070320 -0.049321 0.132668
-0.067859 -0.049348 0.128454
-0.068257 -0.048783 0.129831
-0.068591 -0.048281 0.131247
-0.067926 -0.047446 0.131258
-0.068833 -0.047942 0.132650
-0.066018 -0.048508 0.127026
-0.065344 -0.047730 0.127011
-0.065171 -0.046213 0.128382
-0.064729 -0.046856 0.126998
-0.067125 -0.048655 0.128435
-0.067549 -0.048032 0.129835
-0.066440 -0.047885 0.128427
-0.065790 -0.047086 0.128396
-0.066886 -0.047241 0.129814
-0.071998 -0.050420 0.132651
-0.071151 -0.049885 0.132664
-0.073521 -0.050653 0.134443
-0.073122 -0.050577 0.134062
-0.071339 -0.049621 0.134067
-0.072230 -0.050096 0.134063
-0.070499 -0.049071 0.134077
-0.070724 -0.048755 0.135491
-0.069914 -0.048163 0.135483
-0.069735 -0.048407 0.134074
-0.075510 -0.050632 0.135846
-0.074519 -0.050398 0.135846
-0.073382 -0.050183 0.135448
-0.073519 -0.050053 0.135848
-0.072469 -0.049751 0.135469
-0.071603 -0.049257 0.135501
-0.072831 -0.049250 0.136891
-0.071875 -0.048857 0.136886
-0.074504 -0.049596 0.137269
-0.075505 -0.049807 0.137255
-0.073509 -0.049353 0.137262
-0.072524 -0.048963 0.137240
-0.066265 -0.046368 0.129803
-0.065642 -0.045496 0.129793
-0.064581 -0.045324 0.128354
-0.063605 -0.044977 0.126943
-0.063401 -0.041724 0.115527
-0.063316 -0.045406 0.125546
-0.062851 -0.042545 0.116991
-0.062593 -0.044660 0.124120
-0.062513 -0.043056 0.118430
-0.062778 -0.044418 0.125519
-0.061665 -0.042472 0.119834
-0.062221 -0.043466 0.119852
-0.062057 -0.043678 0.121268
-0.061968 -0.043791 0.122680
-0.062001 -0.043762 0.124100
-0.069036 -0.047642 0.134069
-0.068164 -0.047107 0.132655
-0.068356 -0.046860 0.134056
-0.069203 -0.047417 0.135485
-0.068487 -0.046705 0.135467
-0.067266 -0.046697 0.131206
-0.066627 -0.045840 0.131204
-0.067513 -0.046303 0.132633
-0.074514 -0.048815 0.138634
-0.075504 -0.048950 0.138646
-0.073516 -0.048599 0.138649
-0.072537 -0.048318 0.138625
-0.075502 -0.048100 0.140041
-0.074509 -0.047979 0.140045
-0.069372 -0.047187 0.136902
-0.070179 -0.047786 0.136914
-0.071016 -0.048344 0.136910
-0.072237 -0.048356 0.138308
-0.071322 -0.047920 0.138326
-0.070432 -0.047433 0.138320
-0.008096 -0.041960 0.034744
-0.001397 -0.041659 0.034621
-0.000357 -0.041831 0.034667
-0.007009 -0.042072 0.034873
-0.006011 -0.042307 0.034838
-0.005017 -0.042545 0.034802
-0.002069 -0.043322 0.034614
-0.004105 -0.042909 0.034602
-0.003063 -0.043084 0.034649
-0.003346 -0.041119 0.034774
-0.002308 -0.041290 0.034820
-0.004299 -0.040819 0.034891
-0.008917 -0.041468 0.035108
-0.005252 -0.040518 0.035009
-0.000643 -0.039868 0.034791
-0.001504 -0.039435 0.035073
0.003107 -0.038781 0.034856
0.002068 -0.038609 0.034809
0.000357 -0.040101 0.034756
0.002308 -0.040639 0.034603
0.005774 -0.037588 0.034790
0.004819 -0.037291 0.034907
0.004061 -0.039084 0.034738
0.005060 -0.039318 0.034702
0.006057 -0.039556 0.034667
0.003348 -0.040814 0.034649
0.001356 -0.040341 0.034720
0.005340 -0.041286 0.034579
0.004346 -0.041051 0.034614
0.000638 -0.042069 0.034632
0.002631 -0.042542 0.034561
0.001680 -0.042239 0.034678
0.004718 -0.042886 0.034655
0.003718 -0.042648 0.034690
0.006384 -0.041458 0.034625
0.007425 -0.041633 0.034672
0.008422 -0.041869 0.034637
0.008006 -0.040097 0.034513
0.009045 -0.040264 0.034560
0.007053 -0.039794 0.034631
0.007723 -0.038128 0.034636
0.008723 -0.038362 0.034601
0.006724 -0.037888 0.034672
0.009763 -0.038534 0.034648
0.010434 -0.036868 0.034653
0.009479 -0.036566 0.034770
0.010503 -0.042216 0.034732
0.009460 -0.042040 0.034684
0.010135 -0.040376 0.034689
0.010760 -0.038770 0.034612
0.011800 -0.038946 0.034659
0.011430 -0.037101 0.034617
0.011084 -0.040676 0.034572
0.011586 -0.042322 0.034861
0.012843 -0.039114 0.034706
0.013925 -0.039222 0.034835
0.016726 -0.037832 0.035016
0.017854 -0.037879 0.035228
0.014553 -0.037620 0.034758
0.015638 -0.037727 0.034886
0.012474 -0.037273 0.034664
0.013513 -0.037449 0.034711
0.012173 -0.040784 0.034701
0.013258 -0.040891 0.034830
0.016052 -0.039503 0.035012
0.015011 -0.039332 0.034964
0.015428 -0.041110 0.035092
0.014339 -0.041002 0.034961
0.019158 -0.037661 0.035768
0.017228 -0.039485 0.035307
-0.004772 -0.044570 0.034595
-0.021198 -0.044480 0.034765
-0.003732 -0.044744 0.034642
-0.002734 -0.044980 0.034607
-0.009452 -0.045302 0.034677
-0.010443 -0.045050 0.034719
-0.001652 -0.045090 0.034737
-0.020165 -0.044666 0.034803
-0.012424 -0.044556 0.034803
-0.011434 -0.044803 0.034761
-0.008458 -0.045549 0.034635
-0.007428 -0.045736 0.034672
-0.017154 -0.045352 0.034756
-0.019137 -0.044853 0.034840
-0.018145 -0.045101 0.034798
-0.023860 -0.045644 0.034788
-0.015171 -0.045846 0.034672
-0.024853 -0.045394 0.034830
-0.016121 -0.045536 0.034793
-0.000565 -0.045198 0.034867
-0.006394 -0.045925 0.034709
-0.013145 -0.046279 0.034668
-0.012113 -0.046472 0.034705
-0.011123 -0.046719 0.034664
-0.022832 -0.045833 0.034826
-0.021797 -0.046020 0.034863
-0.014137 -0.046036 0.034710
-0.016800 -0.047198 0.034734
-0.015808 -0.047446 0.034693
-0.017832 -0.047013 0.034697
-0.010088 -0.046907 0.034701
-0.019816 -0.046513 0.034780
-0.020808 -0.046267 0.034822
-0.018822 -0.046763 0.034738
-0.004273 -0.046212 0.034883
-0.005357 -0.046103 0.034753
0.000516 -0.045309 0.034997
0.007431 -0.044681 0.035285
0.006345 -0.044574 0.035155
-0.009058 -0.047096 0.034739
-0.003187 -0.046321 0.035013
0.002685 -0.045525 0.035256
0.001602 -0.045417 0.035127
-0.015479 -0.043936 0.034771
-0.013456 -0.044370 0.034766
-0.022189 -0.044229 0.034807
-0.014447 -0.044122 0.034808
-0.023184 -0.043981 0.034849
-0.016471 -0.043685 0.034813
-0.024133 -0.043675 0.034970
-0.012651 -0.042526 0.035056
-0.011781 -0.042952 0.034777
-0.010748 -0.043136 0.034814
-0.007810 -0.043925 0.034619
-0.008764 -0.043620 0.034736
-0.009717 -0.043319 0.034854
-0.005769 -0.044335 0.034630
-0.006813 -0.044159 0.034583
-0.001026 -0.043494 0.034661
-0.000031 -0.043731 0.034626
0.001010 -0.043901 0.034672
0.002051 -0.044074 0.034719
0.004180 -0.044357 0.034897
0.005265 -0.044467 0.035028
0.003137 -0.044185 0.034850
0.006799 -0.043232 0.034750
0.005799 -0.042995 0.034784
0.007838 -0.043403 0.034796
0.008923 -0.043513 0.034926
0.010052 -0.043556 0.035138
0.012716 -0.042366 0.035073
0.016688 -0.040957 0.035549
0.013847 -0.042411 0.035286
0.018529 -0.039270 0.035847
0.020686 -0.037124 0.036722
0.011136 -0.043664 0.035267
0.012308 -0.043645 0.035562
0.015018 -0.042390 0.035580
0.016237 -0.042303 0.035957
0.017950 -0.040807 0.036009
0.019924 -0.038924 0.036552
-0.024704 -0.050534 0.034904
-0.023710 -0.050782 0.034863
-0.019068 -0.050136 0.034788
-0.020059 -0.049888 0.034828
-0.017994 -0.050265 0.034905
-0.024105 -0.049013 0.034834
-0.023117 -0.049262 0.034793
-0.022081 -0.049448 0.034831
-0.016406 -0.048991 0.034792
-0.015331 -0.049121 0.034910
-0.021049 -0.049641 0.034869
-0.013131 -0.049391 0.035179
-0.014261 -0.049253 0.035028
-0.024186 -0.052127 0.035171
-0.022681 -0.050974 0.034902
-0.021608 -0.051106 0.035021
-0.020576 -0.051294 0.035059
-0.019501 -0.051424 0.035176
-0.018375 -0.051528 0.035349
-0.015748 -0.050467 0.035263
-0.016878 -0.050340 0.035104
-0.014607 -0.050443 0.035563
-0.012072 -0.049455 0.035343
-0.010916 -0.049467 0.035619
-0.009761 -0.049479 0.035895
-0.022348 -0.053504 0.036037
-0.024495 -0.053278 0.035776
-0.023422 -0.053370 0.035915
-0.021197 -0.053499 0.036320
-0.020072 -0.053085 0.036197
-0.020965 -0.052524 0.035527
-0.023153 -0.052318 0.035211
-0.022040 -0.052392 0.035408
-0.019852 -0.052598 0.035726
-0.019238 -0.052829 0.036205
-0.018663 -0.052527 0.036095
-0.017483 -0.052272 0.036588
-0.017226 -0.051527 0.035645
-0.016092 -0.051479 0.035955
-0.014878 -0.051307 0.036416
-0.013583 -0.051011 0.037020
-0.013506 -0.050471 0.035788
-0.012329 -0.050366 0.036167
-0.008607 -0.049490 0.036171
-0.011104 -0.050218 0.036605
-0.009780 -0.049800 0.037271
-0.013744 -0.047827 0.034769
-0.021485 -0.047927 0.034760
-0.020455 -0.048116 0.034798
-0.023509 -0.047489 0.034764
-0.022476 -0.047677 0.034801
-0.024462 -0.047180 0.034884
-0.014735 -0.047580 0.034810
-0.017396 -0.048744 0.034833
-0.019465 -0.048364 0.034756
-0.018431 -0.048552 0.034794
-0.010566 -0.048274 0.035040
-0.011639 -0.048144 0.034923
-0.012669 -0.047959 0.034887
-0.009451 -0.048345 0.035236
-0.008378 -0.048476 0.035354
-0.007221 -0.048488 0.035629
-0.007985 -0.047224 0.034855
-0.006909 -0.047353 0.034972
-0.004675 -0.047487 0.035372
-0.005794 -0.047426 0.035169
-0.003546 -0.047530 0.035584
-0.002102 -0.046429 0.035143
-0.000973 -0.046476 0.035357
0.000197 -0.046455 0.035652
0.001323 -0.046471 0.035870
0.003817 -0.045569 0.035469
0.004945 -0.045612 0.035678
0.006074 -0.045657 0.035894
-0.007379 -0.049153 0.036723
-0.006106 -0.048560 0.035829
-0.005178 -0.048450 0.036734
-0.004920 -0.048453 0.036204
-0.004153 -0.048168 0.036789
-0.003693 -0.048203 0.036690
-0.006097 -0.048748 0.037339
-0.004234 -0.047939 0.038225
-0.003240 -0.047717 0.038276
-0.002329 -0.047446 0.035961
-0.001184 -0.047348 0.036253
0.000220 -0.046785 0.037098
-0.002237 -0.047334 0.038306
0.002529 -0.046340 0.036264
-0.001258 -0.047032 0.038342
0.001837 -0.046380 0.037307
0.003790 -0.046186 0.036718
0.001485 -0.046432 0.038584
0.008560 -0.044726 0.035498
0.007243 -0.045637 0.036189
0.009692 -0.044769 0.035709
0.010861 -0.044749 0.036007
0.013481 -0.043624 0.035856
0.014655 -0.043604 0.036153
0.012076 -0.044646 0.036387
0.019385 -0.040400 0.036797
0.021686 -0.037261 0.037490
0.017539 -0.042088 0.036496
0.020702 -0.039246 0.037365
0.021305 -0.038252 0.037452
0.015916 -0.043454 0.036612
0.019109 -0.041488 0.037532
0.020073 -0.040220 0.037298
-0.019657 -0.037526 0.039071
-0.018616 -0.037702 0.039118
0.013327 -0.044466 0.036855
0.008499 -0.045448 0.036658
0.017353 -0.043048 0.037401
0.020103 -0.041037 0.037962
0.022588 -0.038316 0.038898
0.009887 -0.045072 0.037368
0.014685 -0.044223 0.037467
0.017745 -0.042910 0.037928
0.018549 -0.042303 0.037949
0.021941 -0.039308 0.038842
-0.022323 -0.038710 0.039134
-0.024400 -0.038365 0.039040
-0.023320 -0.038473 0.039170
-0.014500 -0.038454 0.039223
-0.015493 -0.038221 0.039259
-0.016534 -0.038048 0.039212
-0.017533 -0.037809 0.039247
-0.009667 -0.037482 0.039418
-0.021282 -0.038884 0.039181
-0.020242 -0.039057 0.039228
-0.013415 -0.038562 0.039353
-0.008626 -0.037655 0.039465
-0.007585 -0.037828 0.039512
-0.019201 -0.039230 0.039275
-0.018160 -0.039403 0.039322
-0.012331 -0.038671 0.039482
-0.017114 -0.039577 0.039370
-0.011290 -0.038844 0.039529
-0.014994 -0.039858 0.039546
-0.016034 -0.039685 0.039499
0.002482 -0.046163 0.038559
0.002911 -0.046049 0.038548
0.004006 -0.045884 0.038613
0.012688 -0.044521 0.037669
0.005130 -0.045841 0.037340
0.013787 -0.044336 0.037763
0.006530 -0.045533 0.038035
0.011328 -0.044699 0.038148
0.005106 -0.045760 0.038676
0.006204 -0.045605 0.038739
0.007889 -0.045351 0.038654
0.007356 -0.045452 0.038818
0.009547 -0.045109 0.038944
0.010640 -0.044914 0.039009
0.011734 -0.044731 0.039074
0.014885 -0.044129 0.037803
0.016110 -0.043795 0.038261
0.017035 -0.043664 0.039336
0.019696 -0.042220 0.039404
0.018812 -0.042705 0.039379
0.017977 -0.043252 0.039378
0.020747 -0.041228 0.038769
0.021483 -0.040240 0.038858
0.021315 -0.041121 0.039390
0.020596 -0.041717 0.039442
0.023136 -0.039245 0.040456
0.023825 -0.038290 0.040488
-0.024678 -0.054128 0.036681
-0.023570 -0.054154 0.036888
-0.022434 -0.054106 0.037173
-0.024201 -0.054227 0.037365
-0.023032 -0.054156 0.037446
-0.021147 -0.053826 0.037771
-0.020890 -0.053610 0.037621
-0.019919 -0.053397 0.037587
-0.014182 -0.051097 0.037811
-0.015206 -0.051380 0.037759
-0.013193 -0.050788 0.037848
-0.018941 -0.053049 0.037618
-0.018732 -0.052948 0.037403
-0.016186 -0.051690 0.037738
-0.015884 -0.051575 0.037769
-0.011258 -0.050137 0.037897
-0.010259 -0.049775 0.037959
-0.012219 -0.050479 0.037866
-0.008265 -0.049127 0.038046
-0.007232 -0.048949 0.038102
-0.005230 -0.048268 0.038189
0.000499 -0.046636 0.038594
-0.006265 -0.048652 0.038146
-0.000517 -0.046832 0.038624
-0.004227 -0.048009 0.039609
-0.005242 -0.048320 0.039560
-0.006278 -0.048561 0.039511
-0.007304 -0.048838 0.039462
-0.001263 -0.047056 0.039726
-0.002230 -0.047401 0.039691
-0.003252 -0.047683 0.039640
-0.024944 -0.054324 0.038089
-0.024218 -0.054248 0.038767
-0.023055 -0.054061 0.038852
-0.022014 -0.053862 0.038894
-0.020981 -0.053599 0.038956
-0.020001 -0.053287 0.038974
-0.018978 -0.052996 0.039024
-0.018017 -0.052607 0.039062
-0.017113 -0.052183 0.039076
-0.016152 -0.051810 0.039110
-0.015190 -0.051463 0.039140
-0.014171 -0.051169 0.039191
-0.015148 -0.051514 0.040553
-0.014185 -0.051160 0.040587
-0.013187 -0.050872 0.039223
-0.013215 -0.050824 0.040626
-0.011276 -0.050102 0.039293
-0.012235 -0.050472 0.039264
-0.010320 -0.049739 0.039330
-0.009288 -0.049485 0.039379
-0.008272 -0.049182 0.039428
-0.008277 -0.049207 0.040822
-0.009242 -0.049553 0.040787
-0.010260 -0.049845 0.040738
-0.012241 -0.050498 0.040657
-0.011235 -0.050162 0.040704
-0.007258 -0.048906 0.040871
-0.005260 -0.048301 0.040954
-0.006284 -0.048585 0.040907
-0.003277 -0.047655 0.041033
-0.002249 -0.047385 0.041082
-0.004243 -0.047988 0.040999
-0.024661 -0.053955 0.042233
-0.024542 -0.053713 0.042892
-0.024501 -0.053437 0.043543
-0.024235 -0.054185 0.040168
-0.024325 -0.054071 0.041546
-0.023065 -0.054125 0.040242
-0.023086 -0.054070 0.041634
-0.023303 -0.053793 0.042993
-0.023487 -0.053602 0.043537
-0.022493 -0.053565 0.043554
-0.022142 -0.053661 0.043052
-0.021964 -0.053943 0.040308
-0.022033 -0.053878 0.041681
-0.020987 -0.053605 0.040340
-0.021010 -0.053591 0.041733
-0.021510 -0.053479 0.043531
-0.021105 -0.053459 0.043110
-0.020023 -0.053255 0.040370
-0.020041 -0.053237 0.041764
-0.020119 -0.053142 0.043153
-0.019102 -0.052831 0.043193
-0.019048 -0.052920 0.040405
-0.018033 -0.052615 0.040454
-0.019019 -0.052943 0.041811
-0.018048 -0.052607 0.041847
-0.018133 -0.052481 0.043229
-0.017063 -0.052267 0.040485
-0.016150 -0.051858 0.040504
-0.015151 -0.051541 0.041952
-0.017078 -0.052259 0.041883
-0.016111 -0.051901 0.041917
-0.017171 -0.052118 0.043261
-0.016198 -0.051777 0.043300
-0.013240 -0.050782 0.042012
-0.014194 -0.051159 0.041983
-0.011305 -0.050095 0.042091
-0.012266 -0.050452 0.042054
-0.010282 -0.049812 0.042136
-0.009260 -0.049534 0.042182
-0.008531 -0.049014 0.043062
-0.008289 -0.049191 0.042213
-0.007274 -0.048886 0.042262
-0.006312 -0.048531 0.042299
-0.006547 -0.048474 0.043000
-0.007540 -0.048745 0.043031
-0.005547 -0.048113 0.042963
-0.005345 -0.048171 0.042334
-0.004325 -0.047881 0.042374
-0.004546 -0.047873 0.042944
-0.010538 -0.049718 0.043133
-0.011518 -0.050023 0.043177
-0.009524 -0.049402 0.043105
-0.014532 -0.051072 0.043279
-0.015296 -0.051343 0.043329
-0.012539 -0.050438 0.043208
-0.013521 -0.050736 0.043248
-0.013552 -0.050286 0.044569
-0.012550 -0.049925 0.044537
-0.011545 -0.049573 0.044503
-0.010539 -0.049222 0.044469
-0.008536 -0.048496 0.044404
-0.009535 -0.048865 0.044442
-0.001282 -0.047028 0.041114
-0.001385 -0.046865 0.042480
-0.003357 -0.047552 0.042414
-0.002389 -0.047211 0.042445
-0.003542 -0.047490 0.042909
-0.002533 -0.047136 0.042883
-0.001517 -0.046801 0.042851
-0.005520 -0.047543 0.044336
-0.004521 -0.047273 0.044319
-0.007526 -0.048151 0.044383
-0.006530 -0.047875 0.044362
-0.002516 -0.046653 0.044264
-0.003516 -0.046920 0.044283
-0.001507 -0.046382 0.044228
-0.000242 -0.046775 0.039774
0.000791 -0.046536 0.039822
0.001485 -0.046431 0.039988
0.001875 -0.046337 0.039887
0.002900 -0.046073 0.039936
0.002487 -0.046169 0.039963
-0.000216 -0.046762 0.041170
-0.000524 -0.046789 0.041433
0.000822 -0.046540 0.041223
0.000487 -0.046579 0.041412
0.001481 -0.046396 0.041400
-0.000524 -0.046506 0.042827
0.000556 -0.046213 0.042798
0.000495 -0.046056 0.044208
-0.000506 -0.046198 0.044215
0.002483 -0.046161 0.041374
0.001484 -0.046066 0.042792
0.002495 -0.045899 0.042775
0.001501 -0.045972 0.044184
0.002502 -0.045957 0.044190
0.003479 -0.045977 0.039945
0.003488 -0.046020 0.041364
0.003993 -0.045896 0.039997
0.004502 -0.045864 0.041337
0.003495 -0.045683 0.042743
0.003503 -0.045871 0.044165
0.004500 -0.045618 0.042738
0.004500 -0.045980 0.044184
0.005144 -0.045751 0.040074
0.005496 -0.045704 0.041326
0.005520 -0.045530 0.042719
0.005506 -0.045786 0.044138
0.006245 -0.045628 0.040137
0.006484 -0.045585 0.041323
0.006495 -0.045436 0.042720
0.006503 -0.045742 0.044152
0.007403 -0.045503 0.040213
0.008498 -0.045332 0.040276
0.007486 -0.045476 0.041302
0.008495 -0.045316 0.041285
0.009197 -0.045161 0.039194
0.009598 -0.045191 0.040340
0.010755 -0.045078 0.040417
0.009582 -0.045187 0.041720
0.010743 -0.045086 0.041795
0.008488 -0.045147 0.042692
0.007487 -0.045277 0.042709
0.009494 -0.045029 0.042670
0.010592 -0.044868 0.043143
0.007518 -0.045446 0.044088
0.008490 -0.045190 0.044113
0.009532 -0.046183 0.045562
0.009498 -0.044846 0.044063
0.010465 -0.044753 0.044479
0.011492 -0.044478 0.044529
0.011694 -0.044769 0.045928
0.012831 -0.044581 0.039136
0.013929 -0.044416 0.039200
0.011854 -0.044916 0.040481
0.012948 -0.044757 0.040542
0.014044 -0.044581 0.040607
0.015025 -0.044241 0.039264
0.015086 -0.044386 0.040650
0.016104 -0.044017 0.039337
0.016169 -0.044153 0.040719
0.017193 -0.043877 0.040769
0.018143 -0.043496 0.040804
0.011843 -0.044961 0.041861
0.013000 -0.044836 0.041934
0.014095 -0.044664 0.041997
0.015198 -0.044539 0.042060
0.016279 -0.044311 0.042121
0.017306 -0.044044 0.042172
0.018270 -0.043695 0.042204
0.011753 -0.044783 0.043220
0.012850 -0.044628 0.043282
0.014007 -0.044518 0.043357
0.015112 -0.044414 0.043423
0.016259 -0.044264 0.043490
0.017284 -0.044015 0.043540
0.012575 -0.044275 0.044598
0.013670 -0.044107 0.044663
0.012600 -0.044346 0.045941
0.014825 -0.043998 0.044741
0.013606 -0.044034 0.046008
0.014632 -0.043757 0.046065
0.018203 -0.043618 0.043566
0.015974 -0.043876 0.044813
0.017063 -0.043693 0.044871
0.018046 -0.043391 0.044911
0.015717 -0.043560 0.046135
0.016738 -0.043266 0.046185
0.017751 -0.042963 0.046234
0.019834 -0.042439 0.040800
0.018998 -0.042989 0.040801
0.019983 -0.042657 0.042227
0.019120 -0.043181 0.042209
0.019147 -0.043217 0.043597
0.019989 -0.042685 0.043602
0.020701 -0.041930 0.040829
0.018995 -0.043000 0.044939
0.020771 -0.042047 0.042215
0.021543 -0.041402 0.040830
0.019882 -0.042523 0.044954
0.020822 -0.042134 0.043607
0.021614 -0.041506 0.042218
0.018705 -0.042584 0.046259
0.020769 -0.042052 0.044974
0.019602 -0.042128 0.046278
0.020571 -0.041782 0.046313
0.021656 -0.041585 0.043615
0.021583 -0.041489 0.044980
0.021414 -0.041244 0.046321
0.022208 -0.040311 0.040306
0.022179 -0.040543 0.040783
0.022433 -0.040944 0.042225
0.022487 -0.041022 0.043617
0.022386 -0.040891 0.044971
0.022882 -0.039789 0.040750
0.023183 -0.040252 0.042212
0.023331 -0.040488 0.043633
0.023208 -0.040349 0.044956
0.023513 -0.038923 0.040702
0.023875 -0.039487 0.042186
0.024069 -0.039836 0.043630
0.024509 -0.038636 0.042142
0.024695 -0.038270 0.042022
0.024759 -0.039017 0.043582
0.024003 -0.039699 0.044970
0.024786 -0.039076 0.044973
0.022243 -0.040684 0.046324
0.023059 -0.040104 0.046326
0.023873 -0.039521 0.046331
-0.024483 -0.052682 0.044849
-0.021325 -0.053143 0.044467
-0.020522 -0.052862 0.044856
-0.023483 -0.053029 0.044881
-0.021503 -0.053016 0.044883
-0.022493 -0.053053 0.044895
-0.024486 -0.051610 0.046146
-0.023488 -0.052202 0.046203
-0.022489 -0.052304 0.046205
-0.021497 -0.052294 0.046197
-0.020510 -0.052170 0.046185
-0.020287 -0.052893 0.044518
-0.019303 -0.052562 0.044553
-0.018347 -0.052187 0.044592
-0.019514 -0.052531 0.044832
-0.017488 -0.051761 0.044685
-0.015540 -0.051049 0.044662
-0.016509 -0.051334 0.044673
-0.018702 -0.051674 0.045934
-0.019536 -0.051868 0.046121
-0.018545 -0.051508 0.046085
-0.017544 -0.051039 0.046037
-0.014523 -0.050610 0.044631
-0.015535 -0.050216 0.045965
-0.016539 -0.050575 0.045998
-0.024462 -0.050725 0.047434
-0.023491 -0.051015 0.047496
-0.022485 -0.051093 0.047463
-0.020508 -0.050855 0.047442
-0.021495 -0.050979 0.047457
-0.019515 -0.050612 0.047411
-0.001486 -0.050737 0.048942
-0.000498 -0.050903 0.048905
0.000507 -0.051227 0.048975
-0.017535 -0.049840 0.047294
-0.016523 -0.049494 0.047288
-0.018513 -0.050260 0.047386
-0.014532 -0.049859 0.045927
-0.013529 -0.049359 0.045891
-0.012533 -0.048979 0.045847
-0.006496 -0.050181 0.048833
-0.008477 -0.050085 0.048912
-0.007484 -0.050243 0.048897
-0.005491 -0.050261 0.048885
-0.004495 -0.050411 0.048868
-0.003486 -0.050606 0.048939
-0.002497 -0.050537 0.048876
-0.000486 -0.049521 0.047441
0.000507 -0.049671 0.047421
-0.009521 -0.048016 0.045789
-0.010533 -0.048352 0.045799
-0.011539 -0.048671 0.045829
-0.015503 -0.049026 0.047275
-0.001479 -0.049375 0.047453
-0.002493 -0.049159 0.047408
-0.004494 -0.048950 0.047335
-0.003492 -0.049062 0.047357
-0.006501 -0.048284 0.047214
-0.014497 -0.048447 0.047235
-0.005496 -0.048594 0.047296
-0.008508 -0.047699 0.045765
-0.012498 -0.047981 0.047201
-0.013496 -0.048094 0.047209
-0.011499 -0.047861 0.047191
-0.009497 -0.047803 0.047170
-0.007506 -0.047458 0.045741
-0.007505 -0.047829 0.047114
-0.008519 -0.047663 0.047123
-0.010495 -0.047791 0.047172
-0.005495 -0.047156 0.045700
-0.006498 -0.047273 0.045716
-0.004494 -0.047057 0.045680
-0.003497 -0.046986 0.045672
0.000501 -0.047254 0.045730
-0.001497 -0.047029 0.045681
-0.000499 -0.047039 0.045680
-0.002489 -0.046962 0.045650
-0.024479 -0.049293 0.048684
-0.023488 -0.049309 0.048702
-0.022491 -0.049188 0.048680
-0.010491 -0.049290 0.048786
-0.009486 -0.049636 0.048835
-0.012502 -0.048766 0.048679
-0.020503 -0.048937 0.048648
-0.021498 -0.049062 0.048664
-0.011499 -0.049007 0.048686
-0.019486 -0.048502 0.048656
-0.018496 -0.048230 0.048617
-0.013506 -0.048184 0.048616
-0.016497 -0.047634 0.048574
-0.015499 -0.047640 0.048576
-0.017497 -0.047882 0.048594
-0.014497 -0.047880 0.048599
-0.023497 -0.046865 0.049898
-0.024500 -0.046627 0.049902
-0.022497 -0.046496 0.049885
-0.021497 -0.046616 0.049884
-0.018511 -0.046784 0.049906
-0.017500 -0.047006 0.049922
-0.019494 -0.046612 0.049885
-0.020508 -0.046386 0.049871
-0.014494 -0.048733 0.050094
-0.016503 -0.047390 0.049958
-0.015480 -0.047966 0.050028
-0.021410 -0.044855 0.051101
-0.022407 -0.044099 0.051013
-0.024497 -0.043192 0.050969
-0.023484 -0.043559 0.051000
-0.018496 -0.047243 0.051359
-0.017476 -0.047967 0.051444
-0.019507 -0.046374 0.051275
-0.017469 -0.049170 0.052978
-0.018464 -0.048209 0.052882
-0.019440 -0.047181 0.052786
-0.013498 -0.049579 0.050179
-0.013437 -0.050209 0.051687
-0.014463 -0.049513 0.051615
-0.015494 -0.048971 0.051528
-0.016482 -0.048584 0.051504
-0.024449 -0.041371 0.052187
-0.023429 -0.042369 0.052288
-0.020511 -0.045618 0.051206
-0.021497 -0.044709 0.052530
-0.022457 -0.043531 0.052413
-0.023422 -0.042499 0.053749
-0.024020 -0.041690 0.053738
-0.020481 -0.045958 0.052652
-0.021445 -0.045301 0.053998
-0.022418 -0.044018 0.053870
-0.007493 -0.051246 0.050355
-0.008496 -0.051013 0.050328
-0.008498 -0.051858 0.051815
-0.007492 -0.052077 0.051849
-0.009499 -0.051500 0.051777
-0.011506 -0.051159 0.051733
-0.009495 -0.050766 0.050309
-0.010498 -0.051255 0.051755
-0.010494 -0.050529 0.050282
-0.012479 -0.050854 0.051735
-0.011488 -0.050396 0.050276
-0.012533 -0.050201 0.050238
-0.006490 -0.051355 0.050379
-0.005497 -0.051623 0.050382
-0.003496 -0.052334 0.050460
-0.004500 -0.051989 0.050412
-0.006505 -0.052360 0.051854
-0.005485 -0.052897 0.051944
-0.004515 -0.053193 0.051926
-0.000498 -0.052938 0.050518
-0.001496 -0.052910 0.050553
0.000501 -0.053409 0.051973
-0.002494 -0.052683 0.050509
0.000511 -0.052438 0.050382
-0.006500 -0.053061 0.053337
-0.008496 -0.052451 0.053280
-0.007494 -0.052684 0.053307
-0.002498 -0.053904 0.052014
-0.003493 -0.053528 0.051985
-0.001500 -0.054165 0.052030
-0.000497 -0.054152 0.052034
-0.014483 -0.050140 0.053065
-0.013484 -0.050499 0.053101
-0.016483 -0.049785 0.053031
-0.015487 -0.050030 0.053050
-0.011491 -0.051601 0.053204
-0.012476 -0.051200 0.053176
-0.009495 -0.052083 0.053246
-0.010510 -0.051766 0.053198
-0.004511 -0.053813 0.053401
-0.005495 -0.053525 0.053390
-0.003492 -0.054119 0.053450
-0.001498 -0.054748 0.053502
-0.000498 -0.054735 0.053507
-0.002493 -0.054476 0.053486
0.000497 -0.054116 0.053458
-0.016493 -0.050407 0.054476
-0.015477 -0.050724 0.054527
-0.014505 -0.050676 0.054491
-0.013477 -0.050834 0.054538
-0.012458 -0.051422 0.054599
-0.010501 -0.052228 0.054647
-0.011475 -0.051927 0.054640
-0.009496 -0.052570 0.054688
-0.008496 -0.052812 0.054711
-0.007494 -0.053040 0.054736
-0.017456 -0.049756 0.054437
-0.018480 -0.048713 0.054319
-0.019447 -0.047703 0.054231
-0.020414 -0.046539 0.054129
-0.020613 -0.046705 0.055371
-0.019950 -0.047449 0.055385
-0.019277 -0.048200 0.055431
-0.018577 -0.048912 0.055451
-0.017867 -0.049614 0.055475
-0.017093 -0.050263 0.055477
-0.022932 -0.043371 0.055215
-0.022983 -0.043399 0.056625
-0.024092 -0.041705 0.055139
-0.023519 -0.042557 0.055184
-0.023563 -0.042552 0.056579
-0.021834 -0.045107 0.055308
-0.021233 -0.045915 0.055338
-0.021843 -0.045080 0.056702
-0.022430 -0.044299 0.055277
-0.022374 -0.044198 0.056659
0.001509 -0.047701 0.045829
0.002516 -0.048056 0.045906
0.007472 -0.047811 0.045865
0.003512 -0.048300 0.045936
0.004502 -0.048420 0.045945
0.005490 -0.048539 0.045955
0.006477 -0.048401 0.045961
0.010954 -0.045422 0.045993
0.008455 -0.046920 0.045770
0.010374 -0.046348 0.046095
0.003502 -0.050039 0.047440
0.002507 -0.049905 0.047444
0.001510 -0.049901 0.047448
0.004500 -0.050129 0.047477
0.005494 -0.050005 0.047471
0.006486 -0.049764 0.047441
0.007477 -0.049396 0.047411
0.009464 -0.048331 0.047293
0.008492 -0.048848 0.047303
0.010436 -0.047556 0.047244
0.010953 -0.047203 0.047502
0.011631 -0.046425 0.047494
0.017579 -0.042747 0.047554
0.016688 -0.043219 0.047524
0.015844 -0.043749 0.047520
0.013339 -0.045384 0.047531
0.014166 -0.044818 0.047534
0.014950 -0.044211 0.047502
0.012503 -0.045933 0.047535
0.017962 -0.043305 0.048994
0.017168 -0.043911 0.049034
0.016309 -0.044419 0.048977
0.019355 -0.041787 0.047598
0.018461 -0.042256 0.047577
0.020301 -0.041402 0.047637
0.019500 -0.042016 0.048974
0.020391 -0.041533 0.049044
0.018730 -0.042660 0.048983
0.021215 -0.040968 0.047650
0.021284 -0.041071 0.049062
0.022099 -0.040486 0.047668
0.022163 -0.040589 0.049043
0.022925 -0.039919 0.047673
0.023034 -0.040090 0.049071
0.006494 -0.050870 0.048929
0.007488 -0.050505 0.048894
0.008500 -0.050061 0.048821
0.009492 -0.049446 0.048769
0.009909 -0.049252 0.048971
0.010445 -0.048708 0.048816
0.010676 -0.048584 0.048959
0.011418 -0.047894 0.048970
0.012281 -0.047392 0.049020
0.013047 -0.046739 0.049003
0.014704 -0.045620 0.049006
0.013870 -0.046176 0.049008
0.015522 -0.045047 0.049018
0.017835 -0.044925 0.050513
0.018770 -0.044475 0.050496
0.019613 -0.043957 0.050588
0.020352 -0.043276 0.050603
0.020993 -0.042434 0.050543
0.021758 -0.041778 0.050525
0.022621 -0.041272 0.050570
0.023452 -0.040716 0.050569
0.004502 -0.051254 0.048950
0.005495 -0.051102 0.048960
0.003503 -0.051381 0.048956
0.001507 -0.051327 0.049003
0.002504 -0.051344 0.048988
0.008471 -0.050946 0.050363
0.010398 -0.049970 0.050503
0.009519 -0.050443 0.050403
0.012814 -0.048184 0.050497
0.011275 -0.049483 0.050536
0.012051 -0.048839 0.050515
0.015160 -0.046301 0.050478
0.016044 -0.045824 0.050507
0.016897 -0.045311 0.050472
0.013572 -0.047519 0.050490
0.014337 -0.046866 0.050474
0.021709 -0.043498 0.052081
0.021089 -0.044364 0.052111
0.022468 -0.042838 0.052068
0.023170 -0.042086 0.052035
0.023901 -0.041392 0.052048
0.001502 -0.052228 0.050440
0.005512 -0.052141 0.050409
0.003499 -0.052525 0.050513
0.004502 -0.052452 0.050474
0.002502 -0.052293 0.050485
0.006520 -0.052502 0.051864
0.001499 -0.052911 0.051934
0.003497 -0.053251 0.051973
0.003504 -0.053546 0.053385
0.001502 -0.053508 0.053401
0.002519 -0.053481 0.053360
0.002504 -0.053042 0.051943
0.004498 -0.053271 0.051967
0.004501 -0.053514 0.053388
0.005504 -0.053300 0.053362
0.005506 -0.053070 0.051931
0.006503 -0.052813 0.053315
0.006504 -0.052946 0.054720
0.006506 -0.051754 0.050388
0.007508 -0.051982 0.051831
0.007491 -0.051351 0.050377
0.007503 -0.052214 0.053258
0.007495 -0.052535 0.054691
0.008486 -0.052146 0.053276
0.008484 -0.051687 0.051826
0.008507 -0.052477 0.054669
0.009503 -0.052577 0.054685
0.009513 -0.052128 0.053232
0.009503 -0.051375 0.051765
0.010083 -0.051290 0.051995
0.010970 -0.050813 0.052022
0.011750 -0.050187 0.051991
0.012510 -0.049524 0.051984
0.012878 -0.050080 0.053452
0.013267 -0.048858 0.051975
0.013640 -0.049422 0.053441
0.012127 -0.050750 0.053459
0.010519 -0.051907 0.053345
0.011363 -0.051402 0.053471
0.013158 -0.050494 0.054863
0.013902 -0.049815 0.054865
0.010509 -0.052359 0.054658
0.010780 -0.052327 0.054882
0.011667 -0.051859 0.054895
0.012437 -0.051219 0.054887
0.014014 -0.048182 0.051975
0.014348 -0.048682 0.053407
0.014663 -0.049155 0.054853
0.015485 -0.048588 0.054859
0.015170 -0.048111 0.053414
0.015611 -0.046980 0.051952
0.016575 -0.046621 0.051981
0.014770 -0.047518 0.051965
0.016445 -0.048222 0.054885
0.016113 -0.047717 0.053464
0.017603 -0.046357 0.052023
0.018639 -0.046107 0.052055
0.019645 -0.045827 0.052121
0.020163 -0.046560 0.053576
0.017148 -0.047456 0.053505
0.018189 -0.047240 0.053509
0.019307 -0.047068 0.053607
0.017589 -0.048123 0.054939
0.018728 -0.048011 0.055000
0.019691 -0.047657 0.055013
0.020413 -0.045142 0.052120
0.020942 -0.045923 0.053556
0.021663 -0.045216 0.053586
0.022326 -0.044433 0.053598
0.021299 -0.046460 0.055003
0.022031 -0.045766 0.055017
0.020576 -0.047181 0.055032
0.022288 -0.046147 0.056417
0.022964 -0.045371 0.056410
0.022681 -0.044937 0.054980
0.023636 -0.044593 0.056409
0.022994 -0.043621 0.053547
0.023668 -0.042840 0.053538
0.024344 -0.042057 0.053528
0.023342 -0.044150 0.054986
0.023996 -0.043324 0.054951
0.024320 -0.043821 0.056405
0.024724 -0.042625 0.054972
0.025142 -0.043248 0.056415
0.026015 -0.042744 0.056389
0.025547 -0.042039 0.054922
0.025047 -0.041303 0.053497
0.026817 -0.042139 0.056355
-0.005504 -0.053803 0.054796
-0.004494 -0.054005 0.054828
-0.006503 -0.053437 0.054761
-0.003488 -0.054221 0.054851
-0.002485 -0.054558 0.054887
0.000536 -0.054508 0.054866
-0.001498 -0.054854 0.054902
-0.000496 -0.054875 0.054907
-0.013479 -0.051209 0.055966
-0.015490 -0.051118 0.055945
-0.014492 -0.051123 0.055944
-0.012490 -0.051734 0.056006
-0.011490 -0.052330 0.056058
-0.010530 -0.052752 0.056062
-0.009480 -0.053013 0.056144
-0.008506 -0.053204 0.056127
-0.006501 -0.053794 0.056190
-0.007507 -0.053465 0.056143
-0.012991 -0.051759 0.056805
-0.005504 -0.053933 0.056199
-0.004502 -0.053936 0.056202
-0.003496 -0.054010 0.056218
-0.012115 -0.052300 0.056804
-0.002505 -0.054294 0.056240
-0.000497 -0.054766 0.056284
0.000503 -0.054616 0.056275
-0.001495 -0.054608 0.056276
-0.023011 -0.043384 0.058018
-0.023566 -0.042517 0.057972
-0.021305 -0.045953 0.056747
-0.022450 -0.044245 0.058063
-0.016529 -0.050840 0.055887
-0.020724 -0.046774 0.056777
-0.019492 -0.048369 0.056843
-0.020132 -0.047588 0.056808
-0.018801 -0.049090 0.056862
-0.018089 -0.049797 0.056883
-0.017374 -0.050497 0.056906
-0.016571 -0.051097 0.056922
-0.021908 -0.045116 0.058108
-0.021329 -0.045935 0.058141
-0.020781 -0.046804 0.058186
-0.020247 -0.047681 0.058232
-0.023061 -0.043380 0.059412
-0.015496 -0.051379 0.057357
-0.016541 -0.051171 0.057335
-0.014474 -0.051442 0.057390
-0.019650 -0.048490 0.058264
-0.022518 -0.044253 0.059455
-0.021974 -0.045126 0.059501
-0.019047 -0.049295 0.058295
-0.018422 -0.050081 0.058330
-0.021415 -0.045990 0.059547
-0.017650 -0.050728 0.058334
-0.019708 -0.048495 0.059653
-0.019167 -0.049368 0.059698
-0.017474 -0.050990 0.058729
-0.016500 -0.051506 0.058764
-0.015491 -0.051734 0.058787
-0.014509 -0.051885 0.058788
-0.023129 -0.043420 0.060821
-0.022561 -0.044244 0.060850
-0.022031 -0.045160 0.060911
-0.020814 -0.046794 0.059579
-0.020258 -0.047654 0.059625
-0.011506 -0.053074 0.057511
-0.010479 -0.053387 0.057575
-0.009513 -0.053704 0.057554
-0.013502 -0.051750 0.057389
-0.012676 -0.052838 0.058240
-0.013551 -0.052544 0.058830
-0.013414 -0.052191 0.058187
-0.008494 -0.054250 0.057635
-0.011779 -0.053341 0.058263
-0.007497 -0.054379 0.057643
-0.006495 -0.054337 0.057658
-0.001517 -0.054229 0.057621
-0.000508 -0.054477 0.057632
0.000501 -0.054589 0.057674
-0.005497 -0.054162 0.057616
-0.002515 -0.054003 0.057597
-0.003499 -0.053786 0.057586
-0.004492 -0.053891 0.057567
-0.014011 -0.052729 0.059676
-0.013276 -0.053379 0.059727
-0.015498 -0.052465 0.060248
-0.016490 -0.052094 0.060218
-0.013472 -0.053624 0.060384
-0.014477 -0.052805 0.060305
-0.016547 -0.052368 0.061194
-0.010514 -0.054184 0.058992
-0.009506 -0.054842 0.059079
-0.011493 -0.054499 0.060433
-0.010490 -0.055081 0.060498
-0.012515 -0.053455 0.058929
-0.012498 -0.054152 0.060397
-0.011478 -0.053751 0.058999
-0.007501 -0.055018 0.059073
-0.008493 -0.055086 0.059109
-0.006494 -0.054932 0.059050
-0.005495 -0.054892 0.059068
-0.008518 -0.055549 0.060499
-0.004498 -0.055116 0.060486
-0.004497 -0.054323 0.059003
-0.003504 -0.054018 0.058958
-0.002495 -0.054130 0.059014
-0.003491 -0.054719 0.060529
-0.001507 -0.054451 0.059016
0.000502 -0.054978 0.059091
-0.000500 -0.054883 0.059072
-0.009501 -0.055482 0.060520
-0.009493 -0.055812 0.061950
-0.008504 -0.055974 0.061953
-0.010490 -0.055449 0.061916
-0.006496 -0.055738 0.060534
-0.007494 -0.055659 0.060560
-0.005496 -0.055598 0.060529
-0.005497 -0.055989 0.061946
-0.006497 -0.056125 0.061956
-0.007502 -0.056101 0.061963
-0.002449 -0.055364 0.060586
-0.000492 -0.056041 0.060590
0.000507 -0.056021 0.060596
-0.001483 -0.055858 0.060607
-0.002493 -0.056036 0.061978
-0.004495 -0.055772 0.061963
-0.003496 -0.055685 0.061941
-0.001494 -0.056412 0.062006
-0.000497 -0.056539 0.062013
0.000501 -0.056570 0.062007
-0.013512 -0.054178 0.061788
-0.013112 -0.054513 0.062606
-0.013736 -0.053797 0.061178
-0.013948 -0.053985 0.062584
-0.012492 -0.054621 0.061843
-0.011483 -0.054962 0.061875
-0.014480 -0.053510 0.061748
-0.014554 -0.053223 0.061150
-0.016463 -0.052538 0.061667
-0.015464 -0.053131 0.061723
-0.015514 -0.053334 0.063106
-0.014501 -0.053679 0.063146
-0.017912 -0.050941 0.059765
-0.018570 -0.050184 0.059725
-0.017457 -0.051453 0.060172
-0.019839 -0.048603 0.061075
-0.020881 -0.046799 0.060970
-0.020337 -0.047673 0.061013
-0.022637 -0.044291 0.062259
-0.021475 -0.045992 0.060939
-0.021032 -0.046925 0.062391
-0.019962 -0.048677 0.062479
-0.020493 -0.047798 0.062435
-0.021569 -0.046047 0.062347
-0.022096 -0.045166 0.062306
-0.018073 -0.051059 0.061188
-0.017326 -0.051725 0.061189
-0.019280 -0.049435 0.061099
-0.018716 -0.050290 0.061148
-0.021288 -0.047145 0.063826
-0.021801 -0.046255 0.063789
-0.022859 -0.044491 0.063703
-0.022326 -0.045369 0.063746
-0.018805 -0.050325 0.062527
-0.019439 -0.049560 0.062521
-0.018138 -0.051081 0.062569
-0.017433 -0.051791 0.062591
-0.016685 -0.052478 0.062588
-0.023196 -0.044758 0.065117
-0.022704 -0.045660 0.065145
-0.020786 -0.048041 0.063861
-0.022197 -0.046591 0.065217
-0.019655 -0.049726 0.063928
-0.020228 -0.048901 0.063911
-0.016454 -0.052762 0.063082
-0.019061 -0.050540 0.063953
-0.018356 -0.051255 0.063974
0.001510 -0.054166 0.056222
0.001518 -0.053816 0.054796
0.001501 -0.054367 0.057649
0.001503 -0.056612 0.061997
